ply
format ascii 1.0
comment Created by Open3D
element vertex 1755
property double x
property double y
property double z
end_header
-0.00393887 0.986762 -1.16262
0.0616148 0.157984 -1.27645
0.0616328 -0.251853 -1.27648
0.0938364 -0.0603544 -1.33239
0.0689768 -0.207065 -1.28923
-0.028932 -0.308799 -1.11923
0.0424594 -0.990313 -1.24319
-0.0280537 -0.444159 -1.12075
-0.0121564 -0.602131 -1.14835
0.0286285 -0.735404 -1.21917
-0.00785084 -0.574423 -1.15583
0.0260793 -1.17589 -1.21474
-0.0206738 -1.2871 -1.13357
-0.00915433 -0.266379 -1.15357
-0.0146139 -0.653277 -1.14409
-0.124367 1.00871 -1.23725
-0.0350795 1.00871 -1.11048
0.00689709 -1.42287 -1.36996
-0.00743863 -1.42287 -1.18941
-0.0642254 -1.29499 -1.10177
-0.108605 -0.764448 -1.12733
-0.0596804 -1.21844 -1.09915
-0.147134 -0.476489 -1.14952
-0.170173 -0.255287 -1.16279
-0.0743058 0.0110115 -1.10757
-0.109411 -0.270566 -1.12779
-0.0696141 -0.727023 -1.10487
-0.101682 -0.317848 -1.12334
-0.0996616 0.621309 -1.12218
0.0153012 0.598938 -1.40152
0.0271531 0.518468 -1.3947
-0.016745 0.39725 -1.41998
0.0462213 0.113264 -1.38372
0.0139967 0.0529331 -1.40228
0.0989565 -0.801709 -1.35334
0.0624294 -0.935073 -1.37438
0.0653299 -0.588495 -1.37271
0.0508611 -0.760159 -1.38104
0.0731681 -1.08025 -1.3682
-0.802655 0.15558 -0.08077
-0.847673 -0.00598534 -0.0014693
-0.54958 -0.293127 -0.526577
-0.805532 -0.349072 -0.075702
-0.838255 0.632463 -0.0180592
-0.559297 0.445299 -0.509461
-0.922214 0.118969 0.12984
-0.732069 0.255566 -0.205112
-0.902153 -0.299005 0.0945007
-0.538362 -1.20119 -0.546339
-0.455305 -1.22198 -0.69265
-0.359113 -0.540584 -0.862096
-0.414913 -0.51618 -0.763802
-0.412965 -0.0204379 -0.767234
-0.417867 -0.540313 -0.758598
-0.29764 -0.939361 -0.970385
-0.428252 -0.952435 -0.740304
-0.54464 -0.490377 -0.53528
-0.403069 -0.4599 -0.946715
-0.801655 -1.01506 -0.244581
-0.528898 -1.10056 -0.725059
-0.45948 -1.35885 -0.847343
-0.57818 -0.535452 -0.638247
-0.392528 -0.992403 -0.965284
-0.624555 -1.3424 -0.556554
-0.486224 -1.16184 -0.800231
-0.948 -1.33053 0.0132139
-0.597613 0.041169 -0.604013
-0.912628 -0.361209 -0.049096
-0.712307 -0.0171967 -0.401973
-0.437765 0.553164 -0.885596
-0.694205 0.198216 -0.43386
-0.79134 0.0518007 -0.262752
-0.659023 0.515803 -0.495836
-0.820114 -0.8519 -0.212064
-0.835206 -0.51935 -0.18548
-0.58769 0.462031 -0.621494
-0.23805 -0.90526 -1.18037
-0.251048 -0.154202 -1.18774
-0.449433 0.674395 -0.776671
-0.635128 0.674395 -0.522871
-0.960978 -0.34253 0.124819
-0.975277 -1.27052 0.116701
-0.710925 -1.42287 -0.284968
-0.437434 -1.42287 -0.856653
-1.04607 -0.414623 0.348024
-1.06367 0.130939 0.379032
-1.12978 -1.05226 0.495475
-1.13761 -0.792007 0.509275
-0.951981 -0.23821 0.182276
-0.99983 -0.440458 0.266565
-1.03185 -0.130681 0.322971
-0.939279 0.225432 0.159902
-1.10816 -1.11525 0.45739
-1.06343 -0.648014 0.378606
-1.2551 -0.127355 0.716232
-1.30201 0.147044 0.798879
-1.30949 0.810999 0.812057
-1.07706 0.378201 0.402613
-0.995715 0.683481 0.259316
-1.21092 0.0415536 0.63842
-1.13344 0.353014 0.501934
-1.09979 0.35468 0.442658
-1.04088 0.484989 0.338882
-1.14639 0.326495 0.524742
-0.277839 -1.42287 -1.00527
-0.504853 -1.42287 -0.605368
-0.420416 0.729682 -0.754108
-0.522206 0.812519 -0.574798
-0.663214 0.886882 -0.326405
-0.89163 0.958471 0.0759651
-0.18648 -0.464127 -1.1662
-0.187202 0.156044 -1.16493
-0.330322 -0.0503943 -1.23691
-0.324498 -0.291609 -1.24717
-1.06544 0.710752 0.0580372
-0.99608 0.749735 -0.0641381
-0.487221 0.790058 -0.960525
-0.445927 0.838651 -1.03327
-0.983928 -1.42287 -0.0855444
-0.404654 -1.42287 -1.10597
-1.17583 0.71496 0.252502
-1.41965 -0.484194 0.682001
-1.48731 -0.717646 0.801189
-1.40064 0.0349862 0.648525
-1.41929 -0.523339 0.681368
-1.2345 0.342924 0.355848
-1.30346 0.585191 0.477325
-1.48377 -1.13308 0.794953
-1.27696 -0.0418975 0.430646
-1.47227 -1.00424 0.774705
-1.13252 -1.38456 0.176204
-1.32938 -0.793731 0.522991
-1.07042 -0.923613 0.0668099
-1.08349 -0.307381 0.0898482
-1.29126 -0.476873 0.455833
-1.22748 -0.843168 0.343479
-1.2243 -0.581083 0.337879
-1.14784 -0.413546 0.203189
-1.30986 -1.26154 0.488601
-1.18842 -0.744135 0.274687
-0.237202 -0.00849495 -1.17988
-0.30288 0.139466 -1.21717
-0.663178 0.674395 -0.411403
-0.856653 0.674395 -0.240511
-0.939778 -0.781364 0.136854
-1.02391 0.361477 0.089095
-0.256299 1.00871 -1.11908
-1.19748 1.00871 0.419176
-1.40962 -1.42287 0.745064
-1.11982 -1.42287 0.293122
-0.21917 -1.20186 -1.19071
-0.279669 0.864751 -1.22506
-1.41389 0.0495523 0.925661
-1.52242 -0.91454 0.864053
-0.257313 0.458824 -1.21842
-0.462827 -1.35493 -1.35202
-0.303666 -0.526516 -1.24855
-0.336508 0.46053 -1.2699
-0.25406 -1.42203 -1.2163
-0.36669 0.322351 -1.28952
-0.395606 -1.16727 -1.30832
-0.191636 0.4568 -1.17572
-0.411831 -0.989278 -1.31887
-0.330922 -0.613838 -1.26627
-0.317332 0.753045 -1.25743
-0.727426 -0.0377339 -1.52404
-0.648857 0.974607 -1.47296
-0.599951 0.213987 -1.44117
-0.636997 -0.110121 -1.46525
-0.513517 0.396724 -1.38497
-0.412388 0.345245 -1.31923
-0.470914 0.584544 -1.35728
-0.607774 0.609074 -1.44625
-0.548462 0.787917 -1.40769
-0.414371 0.800358 -1.51136
-0.615061 0.118161 -1.64183
-0.775963 -0.330574 -1.74643
-0.409427 0.80452 -1.50814
-0.611862 0.351476 -1.63975
-0.774894 -0.992161 -1.74574
-0.506682 0.508348 -1.57137
-0.629168 -0.571331 -1.651
-0.616664 -0.39595 -1.64287
-0.445966 0.964401 -1.5319
-0.18122 -0.322806 -1.35979
-0.442763 -1.30269 -1.52982
-0.219508 -0.819529 -1.38468
-0.292359 -0.821306 -1.43204
-0.482685 -0.811715 -1.55577
-0.446549 -0.340862 -1.53228
-0.170842 -0.743998 -1.35304
-0.364186 -0.355159 -1.47873
-0.470358 -1.16124 -1.54776
-0.133114 -0.609803 -1.32851
-0.41422 1.00871 -1.34805
-0.672823 1.00871 -1.60747
-0.700433 -1.42287 -1.58963
-0.722771 -1.42287 -1.71087
-0.133572 -0.482425 -1.24816
-0.116499 -0.870803 -1.27442
-0.86038 0.314679 -1.71745
-0.850062 0.0912529 -1.73332
-0.942749 -0.281281 -1.58232
-1.10298 -0.824663 -1.29552
-0.925425 -0.31341 -1.61332
-0.919606 0.470325 -1.62374
-0.975432 -0.674371 -1.52382
-1.06695 -0.57352 -1.36002
-0.955692 0.0310725 -1.55915
-1.14321 -0.0790288 -1.22351
-1.11125 0.110044 -1.28071
-1.0497 0.262937 -1.39088
-1.23246 0.80715 -1.06376
-1.59106 0.583848 -0.4219
-1.10085 0.408895 -1.29933
-1.06917 0.777753 -1.35603
-0.931011 0.961375 -1.60333
-1.47029 0.413778 -0.638065
-1.59964 1.00315 -0.40654
-1.21254 0.5915 -1.09943
-1.20868 0.335051 -1.10633
-1.65747 -1.05542 -0.631091
-1.54695 0.124036 -0.828898
-1.70338 -0.2523 -0.548919
-1.3589 0.664072 -1.16549
-1.73089 -0.824398 -0.499671
-1.53194 0.295985 -0.855766
-1.31736 0.111935 -1.23985
-1.56733 0.352856 -0.792422
-1.5169 0.177775 -0.882685
-1.43482 -0.119825 -1.0296
-1.65028 -1.21809 -0.643958
-1.53589 -1.00568 -0.848708
-1.57038 -1.21499 -0.786964
-1.59139 -1.21469 -0.74936
-1.5126 -0.75843 -0.890385
-1.07253 -1.40208 -1.67808
-1.16247 -0.666665 -1.51709
-1.55374 -1.29612 -0.81676
-1.20493 -0.861289 -1.44108
-1.25601 1.00871 -1.17701
-1.34758 1.00871 -1.11028
-1.50832 -1.42287 -0.773608
-1.39511 -1.42287 -1.08706
-0.919222 -0.242603 -1.64781
-1.02387 0.00346411 -1.70628
-1.63742 0.528642 -0.380173
-1.72223 -1.31954 -0.42756
-1.69453 0.587169 -0.242152
-1.75995 -0.836093 -0.129821
-1.62161 -0.669657 -0.367347
-1.69677 -1.13606 -0.238295
-1.66347 0.507872 -0.295486
-1.81599 -0.532075 -0.0336029
-1.76499 -0.255314 -0.121168
-1.78366 0.00664925 -0.0891166
-1.68767 -0.207416 -0.253928
-1.69503 0.429753 -0.24129
-2.04611 0.815867 0.361497
-1.90754 0.109734 0.12358
-1.8511 -0.0801827 0.0266786
-1.80831 0.592072 -0.0467997
-1.85003 0.991863 0.0248425
-1.83043 0.502688 -0.00882013
-2.08034 0.405166 0.420271
-1.95612 0.973821 0.206992
-1.88835 0.6432 0.0906321
-2.05676 -0.0593752 0.379794
-2.21447 -1.10961 0.332656
-2.11005 0.226725 0.153367
-1.96043 0.674894 -0.103526
-1.91554 0.926943 -0.180595
-2.24653 -1.30047 0.3877
-2.08967 0.13238 0.118382
-2.04963 0.523999 0.0496354
-2.22853 -0.438618 0.356796
-1.89425 0.714518 -0.217146
-2.26249 -0.458833 0.415116
-1.95156 -1.00163 -0.118756
-1.87015 -0.392815 -0.258535
-2.0763 -0.552985 0.0954282
-1.91379 -0.31873 -0.183605
-2.06265 -1.05808 0.0719805
-1.84469 -0.409933 -0.302249
-2.11423 -0.760342 0.160543
-2.22771 -1.35188 0.355399
-2.0567 -0.887212 0.0617738
-2.18628 -1.21354 0.284265
-1.79773 1.00871 -0.216524
-1.90544 1.00871 -0.0796695
-1.8872 -1.42287 0.0762162
-1.89753 -1.42287 -0.0531535
-1.62895 -0.846934 -0.375661
-1.75443 -0.0381592 -0.448742
-2.14133 0.0537421 0.49818
-2.20512 -0.750254 0.461024
-3.65208 -1.24548 -1.54076
-2.73412 -0.318205 -1.01209
-2.73928 -1.20749 -1.01506
-2.94876 -0.949507 -1.1357
-3.73069 0.569534 -1.58603
-2.73551 -0.501879 -1.01289
-3.26711 -0.735398 -1.31905
-2.73855 -0.924537 -1.01464
-2.93234 -0.556359 -1.12625
-2.73564 -0.24876 -1.01297
-2.68513 0.468211 -0.983876
-1.78721 0.00338655 -0.466747
-2.38522 0.776081 -0.811152
-2.7663 0.472536 -1.03062
-2.93388 0.688922 -1.12713
-2.641 -0.0385267 -0.958459
-2.3365 0.0880691 -0.783091
-2.6646 0.596693 -0.972051
-2.84517 0.460466 -1.07604
-1.70709 0.242772 -0.420604
-2.59844 -0.163707 -0.74931
-3.16838 0.296567 -1.07755
-2.18682 0.136509 -0.512248
-2.84285 0.32439 -0.890067
-1.80526 -1.14722 -0.292503
-2.14636 -0.79427 -0.488946
-3.18923 0.516787 -1.08956
-2.6244 0.188728 -0.764262
-3.5366 0.702315 -1.28961
-2.44296 0.48942 -0.659767
-2.3776 -0.956855 -0.622124
-2.8925 -0.922322 -0.918664
-2.3652 -1.08642 -0.614983
-3.91473 -0.828407 -1.50739
-2.82367 -1.08243 -0.879021
-2.07481 -1.24987 -0.447739
-3.83466 -0.490176 -1.46127
-3.90452 -0.434442 -1.50151
-2.50215 -0.783909 -0.693854
-3.56175 -1.07678 -1.3041
-2.76765 1.00871 -1.01192
-2.02455 1.00871 -0.467791
-2.26916 -1.42287 -0.697725
-2.31051 -1.42287 -0.634643
-3.85706 -1.3903 -1.61988
-3.90119 -0.0737689 -1.54326
-1.66648 0.0250055 -0.289412
-1.67279 -1.28498 -0.278441
-3.96247 -1.42287 -1.539
-3.9578 -1.42287 -1.67839
-3.9161 1.00871 -1.59039
-3.9916 1.00871 -1.62985
-3.8838 -1.41035 -1.57345
-3.85983 -0.283201 -1.61507
-3.9925 -0.782172 -1.55218
-4.05133 0.911866 -1.58606
-4.00216 -1.26516 -1.68854
-4.02668 0.327294 -1.64597
-3.8825 -1.08558 -1.67346
-3.92877 0.489907 -1.70011
1.68986 -1.23504 -2.43734
1.38215 -0.81193 -2.61456
1.65714 -0.616023 -2.45618
1.15424 -0.353582 -2.74582
1.02144 0.519885 -2.8223
1.12979 0.571252 -2.7599
1.45483 -1.22242 -2.5727
1.41019 -0.871429 -2.59841
1.74702 -0.468367 -2.40442
0.968265 -0.208661 -2.85293
2.49459 0.787926 -1.97387
1.319 0.590697 -2.65093
1.42276 0.431667 -2.59117
2.55933 0.0324154 -1.93658
1.22973 0.998156 -2.70234
2.15072 0.68334 -2.17192
2.59083 0.397775 -1.91844
2.02107 0.0678533 -2.24658
2.36989 0.259809 -2.04569
1.32109 0.635442 -2.64972
1.49743 0.27961 -2.36352
2.03135 0.476769 -2.05602
2.30345 0.0784698 -1.89931
2.37053 -0.23649 -1.86068
1.89589 0.304049 -2.13404
2.21497 -0.872669 -1.95027
2.62422 -0.942847 -1.71457
1.44894 0.634593 -2.39145
1.61988 0.493857 -2.293
2.62499 -1.21717 -1.71413
1.75661 -0.695068 -2.21426
1.55857 -0.869611 -2.32832
0.739319 -0.407921 -2.80015
1.30394 -0.79926 -2.47496
2.46146 -1.29948 -1.80831
1.23475 -1.35854 -2.51481
1.45141 -0.305701 -2.39003
1.53597 -1.11981 -2.34133
1.15536 -1.1908 -2.56054
1.52961 -0.215887 -2.34499
0.959185 1.00871 -2.79004
2.01878 1.00871 -2.10786
1.93441 -1.42287 -2.1881
1.2696 -1.42287 -2.58229
0.811824 -0.651276 -2.93951
0.736637 -1.09505 -2.80896
2.65466 0.897687 -1.7593
2.63836 0.638309 -1.73099
1.36481 0.254282 -3.90423
1.55311 0.0106461 -4.23275
1.58142 -0.324751 -4.28214
1.28704 0.598345 -3.76856
1.54066 -0.0678862 -4.21103
1.40803 -0.11617 -3.97964
1.45745 -0.16393 -4.06587
1.55168 -0.270595 -4.23026
1.40369 0.288999 -3.97207
1.42761 0.315244 -4.01379
1.37891 -0.241801 -3.92883
1.34848 -0.331336 -3.87575
1.43966 -0.715595 -4.03482
1.39845 -1.25292 -3.96292
1.43481 -1.40792 -4.02637
1.416 -0.812508 -3.99354
1.38195 -0.891027 -3.93415
1.30843 -0.996288 -3.80587
1.40442 -0.557163 -3.97334
1.40123 -0.235503 -3.96778
1.59395 -1.19032 -4.14313
1.45364 -0.496876 -3.89834
1.46849 -1.2534 -3.92424
1.53706 -0.870698 -4.04387
1.57941 -1.22082 -4.11775
1.49772 -0.689383 -3.97524
1.38415 -0.711625 -3.77711
1.60806 -1.34436 -4.16773
1.53497 -0.99882 -4.04022
1.45543 -1.10636 -3.90146
1.65032 -0.686685 -4.24147
1.44562 -0.00726503 -3.88435
1.62969 -0.536926 -4.20547
1.64566 -0.853038 -4.23334
1.66368 -0.729343 -4.26478
1.68861 -0.798885 -4.30827
1.64981 -0.175942 -4.24058
1.56524 -0.264417 -4.09303
1.6704 -1.03394 -4.2765
1.56607 -0.553598 -4.09448
1.28483 -0.616046 -3.71766
1.32027 -0.0614271 -3.69735
1.34002 0.62521 -3.79854
1.54586 0.62521 -4.07221
1.67319 0.0744472 -4.3289
1.66403 -1.06581 -4.33415
1.47373 -1.42287 -4.02659
1.33101 -1.42287 -3.73164
1.64758 -1.32087 -4.39757
1.65505 0.548268 -4.41059
1.38156 0.854189 -3.93346
1.54742 0.843599 -4.22282
0.974129 -0.652781 -3.22265
0.971753 -0.0943101 -3.21851
0.922208 -1.28317 -3.13207
0.891727 0.0960385 -3.07889
0.97206 -0.0213391 -3.21904
0.823415 0.144757 -2.95972
0.868371 -0.0270093 -3.03815
0.972375 -0.828764 -3.21959
0.982766 -1.08648 -3.23772
0.95861 0.200389 -3.19558
1.11689 0.0552114 -3.47172
1.03641 0.966364 -3.33131
1.09375 0.599485 -3.43135
1.18058 0.106802 -3.58283
1.06026 0.304907 -3.37292
1.25379 0.889322 -3.71055
1.13196 0.241417 -3.498
1.07681 0.75028 -3.40179
0.883824 0.928699 -3.06511
1.07854 0.342595 -3.40481
1.27299 0.346566 -3.42231
1.37559 -0.709115 -3.6013
1.27202 -0.486678 -3.42062
1.26497 0.0152212 -3.40832
1.10087 0.48271 -3.12203
1.17738 0.830125 -3.2555
1.11168 0.721785 -3.14089
1.34791 -0.405626 -3.55301
1.33872 -0.499369 -3.53698
1.39604 -0.384856 -3.63699
1.341 -1.20105 -3.54095
1.23331 -0.61422 -3.35308
1.39171 -1.40751 -3.62943
1.00613 -0.56029 -2.95675
1.2724 -1.26038 -3.42128
0.991715 -0.745837 -2.93159
1.32093 -1.14252 -3.50594
1.25904 -1.25524 -3.39797
0.97183 -1.33256 -2.8969
1.32386 -1.02571 -3.51105
1.70035 0.861923 -4.16788
1.46487 0.638478 -3.75707
1.81497 -0.13383 -4.36784
1.77243 -0.749428 -4.29363
1.34208 -0.233308 -3.68484
1.33446 -0.516751 -3.68921
1.67997 0.625209 -4.30371
1.61648 0.625209 -4.08354
1.67238 -0.552778 -4.32936
1.75842 0.292138 -4.28004
1.10341 1.00871 -3.39345
1.06973 1.00871 -3.11518
1.6818 -1.42287 -4.44942
1.73471 -1.42287 -4.33102
1.16572 -1.42287 -3.41585
1.1674 -1.42287 -3.2542
0.828677 -0.37614 -2.93336
0.942315 -0.955394 -2.86823
1.69555 -0.185777 -4.45542
1.80374 0.221278 -4.39341
0.276656 -0.103151 -2.01029
0.272559 0.335104 -2.00317
0.135319 -0.0660178 -1.76488
0.279154 0.170993 -2.01462
0.15187 -0.272716 -1.79362
0.142158 -0.263096 -1.77675
0.298922 0.435437 -2.04895
0.100593 0.293014 -1.70458
0.0900995 0.504381 -1.68636
0.104142 -0.147093 -1.71075
-0.00899047 0.207061 -1.51431
-0.0224407 0.0511787 -1.49096
0.0798103 -1.05759 -1.6685
0.0486967 -0.818319 -1.61448
0.0925315 -0.61328 -1.69059
0.136867 -1.01349 -1.76757
0.138804 -1.24326 -1.77093
-0.0160981 -0.308258 -1.50197
0.0208884 -0.903963 -1.56619
0.120367 -0.739584 -1.73892
0.232852 -1.03904 -1.77393
0.04908 -1.11404 -1.45485
0.191008 -0.478726 -1.70128
0.161427 -0.423078 -1.64992
0.193405 -1.19332 -1.70544
0.155449 -1.11007 -1.63954
0.281234 -1.23302 -1.85794
0.143461 -0.880862 -1.61872
0.357775 -1.32536 -1.99084
0.0487969 -0.926073 -1.45435
0.13491 0.332322 -1.60387
0.244844 -0.19232 -1.79476
0.332549 -0.247828 -1.94704
0.314352 -0.110538 -1.91544
0.216909 0.518413 -1.74625
0.267327 -0.321133 -1.83379
0.309961 -0.172604 -1.90782
0.173731 0.412591 -1.67128
0.358334 -0.409448 -1.99181
0.241014 -0.246701 -1.7881
-0.00157834 -0.646951 -1.44694
-0.00925395 0.22905 -1.45136
0.0169172 0.62521 -1.46542
0.29856 0.62521 -1.91713
0.343242 0.321664 -2.06318
0.344399 -1.08751 -2.06252
0.281903 -1.42287 -2.01196
0.210177 -1.42287 -1.74316
0.555913 -0.764036 -2.49516
0.380442 -0.672451 -2.19049
0.411197 -0.137869 -2.24389
0.405245 -0.777633 -2.23356
0.346845 -0.99144 -2.13216
0.420875 -1.01076 -2.2607
0.452759 -0.0516886 -2.31606
0.326743 -1.28387 -2.09725
0.471022 0.0760033 -2.34777
0.376979 -0.921696 -2.18448
0.641411 0.190235 -2.64362
0.364343 0.907348 -2.16254
0.64732 0.986746 -2.65388
0.604058 0.865871 -2.57876
0.799452 0.620187 -2.91803
0.783548 0.102405 -2.89041
0.808405 0.47687 -2.93357
0.758182 0.393374 -2.84637
0.624306 0.975898 -2.61392
0.723085 0.805044 -2.78543
-0.0206239 0.896363 -1.49411
0.142885 0.827446 -1.77802
-0.116472 0.0972525 -1.32769
-0.112711 -1.28977 -1.33422
-0.0386359 0.744327 -1.46284
-0.0966762 -0.112041 -1.36206
0.0382433 0.955768 -1.27573
0.0619299 -0.0505778 -1.31686
0.0498098 -0.944706 -1.29582
0.0621556 -0.660005 -1.31725
0.170407 0.978596 -1.50521
0.36569 0.693688 -1.84429
0.795283 -0.576946 -2.5902
0.731464 0.0784798 -2.47939
0.666608 0.843602 -2.36678
0.887857 0.00274208 -2.75093
0.939659 -0.223194 -2.84088
0.816034 0.0642214 -2.62623
0.898465 -0.460894 -2.76935
0.56444 0.859126 -2.18938
0.884453 -0.304453 -2.74502
0.821318 -0.504536 -2.6354
0.556001 -1.2874 -2.17473
0.684358 -1.13199 -2.39759
0.786138 -0.720423 -2.57432
0.544343 -0.504663 -2.15448
0.725884 -0.501394 -2.4697
0.665575 -0.244751 -2.36498
0.494322 -0.325078 -2.06763
0.652452 -0.369099 -2.3422
0.719752 -0.519074 -2.45905
0.75758 -1.17944 -2.52473
0.00514443 0.51456 -1.44307
0.100708 0.215423 -1.38803
0.382039 0.625209 -1.92446
0.0905528 0.625209 -1.5056
0.336907 -0.400534 -2.06683
0.427227 0.57904 -2.01481
0.262322 1.00871 -1.78679
0.745494 1.00871 -2.66066
0.808757 -1.42287 -2.89502
0.557375 -1.42287 -2.33086
0.0583059 -1.42287 -1.39372
0.0247617 -1.42287 -1.32923
-0.0860498 -1.32844 -1.22605
-0.0495716 -0.297153 -1.20504
0.929926 0.662871 -2.87501
0.939276 -0.326498 -2.86962
2.87202 -1.42287 -2.87803
2.58058 -1.42287 -2.70506
0.192602 -1.42287 -5.09992
-0.487583 -1.42287 -3.93497
0.11992 -1.42287 -5.38085
-0.748666 -1.42287 -4.924
-2.51655 -1.42287 -3.52494
-1.9695 -1.42287 -3.83433
-0.734394 -1.42287 -4.81428
1.10275 -1.42287 -1.70335
1.82172 -1.42287 -2.6769
0.886851 -1.42287 -1.63916
1.26354 -1.42287 -2.68232
2.20732 -1.42287 -2.92345
1.556 -1.42287 -2.17635
2.4308 -1.42287 -2.78418
-0.750086 -1.42287 -1.27704
-1.79029 -1.42287 -0.923438
-1.28413 -1.42287 -3.28883
-0.969538 -1.42287 -1.96245
-0.796417 -1.42287 -2.35779
-1.30443 -1.42287 -2.38814
-2.02011 -1.42287 -1.85096
-0.763943 -1.42287 -2.15624
-0.557977 -1.42287 -2.13324
-1.09454 -1.42287 0.826021
-0.652901 -1.42287 -0.461757
-0.67501 -1.42287 0.399629
-1.11137 -1.42287 0.824053
-2.52437 -1.42287 -0.736718
-3.8704 -1.42287 -1.76054
0.501552 -1.42287 0.596585
-0.92046 -1.42287 1.52736
-1.15098 -1.42287 3.74626
0.409848 -1.42287 1.96871
-1.68957 -1.42287 1.81031
0.61046 -1.42287 1.82789
0.0348427 -1.42287 1.54222
-0.239247 -1.42287 0.817406
-0.845456 -1.42287 2.75795
0.0346097 -1.42287 1.07607
-2.02157 -1.42287 0.918689
-2.32257 -1.42287 0.90953
-2.03893 -1.42287 3.48135
-2.61721 -1.42287 3.29439
-1.89919 -1.58287 3.54816
-1.71216 -1.58287 3.20264
-2.28121 -1.58287 1.27012
-2.16766 -1.58287 0.56643
0.833138 -1.58287 -0.137618
0.555866 -1.58287 0.66224
-0.212964 -1.58287 1.25207
0.732872 -1.58287 -0.162224
0.634553 -1.58287 0.360629
2.40513 -1.58287 -1.13212
0.11604 -1.58287 1.2902
-0.397867 -1.58287 2.27069
-0.388643 -1.58287 1.64409
-0.115576 -1.58287 1.61313
-3.14479 -1.58287 -1.36064
-3.35258 -1.58287 -2.02785
-1.5532 -1.58287 0.465896
0.145698 -1.58287 -0.587676
0.120053 -1.58287 -0.815667
-1.508 -1.58287 -0.233796
-2.05593 -1.58287 -3.18477
-2.20975 -1.58287 -2.17926
0.109956 -1.58287 -4.04561
-1.7483 -1.58287 -3.15573
-0.989326 -1.58287 -3.19084
0.847332 -1.58287 -3.83979
-0.365825 -1.58287 -3.32923
-0.127239 -1.58287 -3.52576
1.6502 -1.58287 -3.07158
1.50903 -1.58287 -2.83447
-0.964783 -1.58287 -1.15766
0.740921 -1.58287 -3.00349
-1.39372 -1.58287 -0.645261
0.49408 -1.58287 -2.08263
0.074153 -1.58287 -2.0923
-0.276852 -1.58287 -1.50734
-1.39481 -1.58287 -5.43788
-0.802139 -1.58287 -4.08094
-0.238512 -1.58287 -5.59139
-0.775315 -1.58287 -5.26882
-2.12409 -1.58287 -3.46613
-1.34227 -1.58287 -5.62017
-0.920536 -1.58287 -5.40056
2.43489 -1.58287 -3.05306
2.37785 -1.58287 -4.17987
-3.56132 -1.43144 -2.45398
-3.70719 -1.57504 -2.2007
-3.14238 -1.48607 -1.06258
-2.4876 -1.51495 -0.685472
-1.99877 -1.51456 -0.0376987
-2.0883 -1.55063 0.116023
-2.366 -1.4511 0.594722
-2.65232 -1.52021 1.09187
-2.35337 -1.50122 1.35924
-2.09362 -1.52071 1.50884
-2.23341 -1.46632 2.17284
-2.67638 -1.5238 2.94198
-2.12556 -1.50198 4.07586
-1.57087 -1.58202 4.39532
0.739795 -1.43386 1.8861
1.27133 -1.57681 0.9632
3.32004 -1.48741 -2.59403
3.43232 -1.52507 -2.78898
2.897 -1.48484 -3.94808
2.1945 -1.52784 -4.35267
1.416 -1.51634 -4.80103
-0.824983 -1.51307 -6.09168
-1.70211 -1.45276 -5.68216
-2.74727 -1.51358 -3.86742
-2.72038 -0.964132 -1.00417
-2.80353 -0.667171 -1.05206
-2.80573 -0.734023 -1.05333
-2.86066 -0.748577 -1.08497
-2.75648 -0.731537 -1.02496
-2.63642 -1.01082 -0.95582
-2.92308 -1.01739 -1.12091
-2.98017 -1.28053 -1.15379
-2.8339 -1.13064 -1.06955
-2.97593 -0.856684 -1.15135
-2.81927 -1.03711 -1.06113
-2.82799 -1.0837 -1.06615
-2.59853 -0.870357 -1.69278
-2.51594 -1.09501 -1.64521
-2.4917 -1.11799 -1.63125
-2.50294 -1.03481 -1.63773
-2.55434 -0.998525 -1.66732
-2.57991 -1.291 -1.68205
-2.46285 -0.926513 -1.61464
-2.34491 -0.938551 -1.54671
-2.33218 -1.00151 -1.53938
-2.45412 -0.959797 -1.60961
-2.30481 -0.885991 -1.52362
-2.52288 -0.823169 -1.64921
-2.51636 -1.42287 -1.11712
-2.56685 -1.42287 -1.05374
-2.50832 -1.42287 -1.14037
-2.58511 -1.42287 -1.06105
-2.68573 -1.42287 -1.23722
-2.64947 -1.42287 -1.67631
-2.74099 -1.42287 -1.29916
-2.84143 -1.42287 -1.25863
-2.68453 -1.42287 -1.363
-2.62903 -1.42287 -1.64129
-2.70282 -0.653848 -1.07511
-2.6459 -0.653848 -1.14323
-2.79868 -0.653848 -1.39163
-2.77421 -0.653848 -1.35963
-2.64873 -0.653848 -1.00572
-2.38786 -0.653848 -1.4017
-2.61732 -0.653848 -1.23752
-2.60901 -0.653848 -1.25211
-2.61247 -0.653848 -1.34038
-2.51909 -0.653848 -1.30041
-2.46783 -0.858955 -1.1922
-2.59306 -1.05885 -0.974748
-2.51668 -0.831193 -1.10739
-2.51398 -0.67097 -1.11206
-2.46719 -0.706412 -1.19331
-2.60975 -0.79836 -0.945771
-2.48738 -0.97238 -1.15826
-2.51313 -1.00213 -1.11355
-2.52916 -1.06498 -1.08572
-2.56477 -1.40347 -1.02387
-2.49891 -1.3796 -1.13823
-2.39764 -1.1208 -1.31408
-2.56802 -1.38238 -1.01823
-2.47556 -1.28333 -1.17879
-2.41265 -1.33331 -1.28801
-2.42521 -1.03922 -1.2662
-2.48259 -1.29272 -1.16658
-2.4842 -1.33467 -1.16378
-2.29567 -1.36902 -1.49113
-2.9057 -0.976652 -1.29974
-2.95371 -1.34484 -1.21637
-2.8597 -1.06354 -1.3796
-2.9739 -0.945023 -1.18132
-2.908 -1.05592 -1.29573
-2.93092 -1.00984 -1.25594
-2.92131 -1.19904 -1.27263
-2.85128 -1.23221 -1.39423
-2.90883 -0.945912 -1.29429
-2.77198 -0.93784 -1.53191
-2.84144 -0.782926 -1.41131
-2.90409 -0.773819 -1.30253
-2.75026 -0.936588 -1.56962
-2.68763 -0.992163 -1.67837
-2.66699 -0.835449 -1.71422
-2.94358 -0.693309 -1.23396
-2.79614 -0.735213 -1.48997
-2.823 -0.956442 -1.44332
-2.70833 -0.912612 -1.64244
0.949855 0.345574 -3.2986
0.728891 0.372702 -2.91311
0.801256 0.49058 -3.03935
0.677759 0.474075 -2.8239
0.873201 0.323938 -3.16487
0.588251 0.49356 -2.66774
0.789484 0.262778 -3.01882
0.825811 0.302549 -3.08219
0.843841 0.28375 -3.11365
0.8932 0.278587 -3.19976
0.595926 0.391922 -2.68113
0.729797 0.19892 -2.91469
0.54548 0.117563 -2.59313
0.754735 0.161912 -2.95819
0.602652 0.21295 -2.69287
0.652678 -0.0152637 -2.78014
0.577495 0.161394 -2.64898
0.568126 -0.00199779 -2.63263
0.553146 0.0057067 -2.6065
0.694461 0.0883115 -2.85304
0.497928 0.378327 -2.71125
0.618898 0.313253 -2.9223
0.643997 0.232795 -2.96609
0.591574 0.0589595 -2.87463
0.511655 0.144636 -2.7352
0.515659 0.0538692 -2.74219
0.545307 -0.0256769 -2.79391
0.663919 0.0373308 -3.00084
0.680734 0.015393 -3.03018
0.479017 0.0533953 -2.67826
0.764613 0.349204 -3.17651
0.883719 0.25257 -3.38431
0.913116 0.505585 -3.43559
0.788434 0.270856 -3.21807
0.596981 0.520679 -2.88406
0.620405 0.440574 -2.92493
0.773086 0.315725 -3.1913
0.87733 0.421246 -3.37316
0.557946 0.474633 -2.81596
0.685385 0.263282 -3.03829
0.729886 -0.0478084 -2.98358
0.59015 -0.0478084 -2.76131
0.63891 0.521283 -2.78028
0.780493 0.521283 -3.17121
0.988314 0.277089 -3.41485
0.948536 -0.0197238 -3.43766
0.489586 -0.0106259 -2.59143
0.484609 0.30543 -2.59428
-1.25679 -1.14777 -1.44664
-1.65312 -1.07653 -0.758456
-1.43417 -1.09575 -1.13864
-1.6415 -1.08569 -0.778634
-1.50622 -1.11764 -1.01354
-1.77243 -1.08257 -0.5513
-1.70423 -1.31003 -0.669723
-1.5846 -1.32655 -0.87743
-1.65355 -1.10508 -0.757724
-1.78926 -1.05521 -0.52207
-2.48285 -1.23743 -0.911048
-2.26638 -1.20121 -1.28692
-2.41231 -1.19384 -1.03355
-2.22639 -1.21469 -1.35637
-2.4047 -1.09916 -1.04676
-2.042 -0.997731 -1.67653
-2.09145 -1.20319 -1.59066
-2.25217 -1.00352 -1.31159
-1.76894 -1.13372 -2.15066
-1.77739 -1.02981 -2.13599
-1.78157 -1.42287 -0.777564
-1.40334 -1.42287 -1.24415
-1.26066 -1.42287 -1.45552
-1.49762 -1.42287 -1.75668
-1.4515 -1.42287 -1.82856
-1.59864 -1.42287 -1.34492
-1.46808 -1.42287 -1.28518
-1.70974 -1.42287 -1.0053
-1.73562 -1.42287 -1.39573
-1.75759 -1.42287 -1.20319
-2.1783 -1.42287 -1.21318
-2.03195 -1.42287 -1.25202
-1.9789 -1.42287 -0.713319
-2.01562 -1.42287 -1.32967
-1.83954 -1.42287 -0.718796
-2.05802 -1.42287 -1.19324
-2.19634 -1.42287 -1.36068
-2.28253 -1.42287 -1.24473
-2.28655 -1.42287 -1.17156
-2.12342 -1.42287 -0.847724
-1.42546 -0.993455 -1.53502
-1.56401 -0.993455 -1.16853
-1.78555 -0.993455 -0.937945
-1.47234 -0.993455 -1.16777
-1.8942 -0.993455 -0.681799
-1.81638 -0.993455 -1.0296
-1.28884 -0.993455 -1.56382
-1.42155 -0.993455 -1.4798
-1.66802 -0.993455 -0.955573
-1.54038 -0.993455 -1.28387
-1.914 -0.993455 -1.47602
-1.43972 -0.993455 -1.55941
-1.71409 -0.993455 -1.97415
-1.89527 -0.993455 -1.70154
-1.96367 -0.993455 -1.46034
-1.59546 -0.993455 -1.48495
-1.99605 -0.993455 -1.49878
-1.70017 -0.993455 -1.60065
-1.96113 -0.993455 -1.51361
-1.91352 -0.993455 -1.44516
-1.28938 -1.16794 -1.87781
-1.07972 -1.2607 -1.75706
-1.66768 -1.36938 -2.09568
-1.34286 -1.37701 -1.90861
-2.03605 -1.27247 -0.610056
-2.06508 -1.38839 -0.626778
-2.06871 -1.13367 -0.628866
-2.01648 -1.11968 -0.598785
-1.40947 -0.667397 -2.97914
-1.59054 -0.55211 -3.09784
-1.72135 -0.426579 -3.18359
-1.41088 -0.359608 -2.98007
-1.75025 -0.151404 -3.20254
-1.63401 -0.109144 -3.12633
-1.47806 -0.355541 -3.02411
-1.45489 -0.132089 -3.00892
-1.87103 -1.09175 -3.28171
-1.8763 -0.886289 -3.28516
-1.95262 -0.240378 -3.33519
-1.95588 -1.19921 -3.33733
-1.83987 -0.669596 -3.26128
-1.69784 -1.04197 -3.16818
-1.92873 -1.37078 -3.31954
-1.70014 -1.20639 -3.16968
-1.51579 -1.00756 -4.01014
-1.29218 -1.25055 -3.86355
-1.38349 -0.557878 -3.92341
-1.39015 -1.35495 -3.92778
-1.43983 -0.33456 -3.96034
-1.47587 -0.265768 -3.98396
-1.49846 -1.13616 -3.99877
-1.30826 -1.17467 -3.87409
-0.941686 -0.298072 -3.63379
-1.24141 -0.546221 -3.83027
-1.22981 -0.701277 -3.82266
-1.2558 -0.66518 -3.8397
-1.1115 -0.643381 -3.74511
-1.411 -0.0791208 -3.94144
-1.38633 -0.283153 -3.92527
-0.950536 -0.60558 -3.6396
-1.38167 -1.42287 -3.17097
-1.3738 -1.42287 -3.20322
-1.36187 -1.42287 -3.4239
-1.69538 -1.42287 -3.34761
-1.40096 -1.42287 -3.37993
-1.85864 -1.42287 -3.38181
-1.57119 -1.42287 -3.46202
-1.76775 -1.42287 -3.58762
-1.26818 -1.42287 -3.76082
-1.50382 -1.42287 -3.92717
-1.42838 -0.0766578 -3.15666
-1.43171 -0.0766578 -3.16674
-1.71117 -0.0766578 -3.56773
-1.73325 -0.0766578 -3.64769
-1.72709 -0.0766578 -3.263
-1.22488 -0.0766578 -3.57572
-1.04126 -0.0766578 -3.62476
-1.21114 -0.0766578 -3.59714
-1.38383 -0.0766578 -3.09474
-1.15178 -0.0766578 -3.74824
-1.22123 -0.486507 -3.17126
-1.15299 -0.376746 -3.27537
-1.19789 -0.163998 -3.20687
-1.31185 -0.218817 -3.03302
-1.26599 -0.737398 -3.10297
-1.18376 -0.765353 -3.22843
-1.20522 -0.333404 -3.19569
-1.20581 -0.620519 -3.19477
-1.27766 -0.681165 -3.08518
-1.16451 -0.662599 -3.25779
-1.08823 -1.19286 -3.37414
-0.972358 -0.75421 -3.55091
-1.15385 -0.930906 -3.27404
-1.10975 -0.94836 -3.34132
-1.2046 -1.1985 -3.19663
-1.28105 -1.17013 -3.08001
-0.973859 -1.11534 -3.54862
-1.20088 -1.13377 -3.2023
-1.25549 -1.35198 -3.119
-1.89516 -1.32973 -3.44842
-1.84393 -0.512659 -3.52658
-1.85921 -1.20972 -3.50327
-1.7867 -1.02119 -3.61388
-1.82318 -1.03338 -3.55823
-1.8843 -0.611309 -3.46499
-1.76088 -1.29551 -3.65327
-1.94695 -0.806312 -3.36941
-1.81092 -0.729672 -3.57693
-1.84239 -1.18259 -3.52893
-1.7655 -0.640657 -3.64622
-1.76225 -0.204685 -3.65118
-1.74542 -0.444383 -3.67685
-1.70888 -0.742933 -3.73259
-1.69514 -0.528474 -3.75356
-1.87795 -0.258643 -3.47467
-1.75716 -0.251858 -3.65894
-1.93518 -0.16054 -3.38737
-1.60439 -0.515619 -3.89199
-1.61146 -0.915583 -0.384702
-1.2513 -0.654548 -1.01914
-1.63067 -0.583086 -0.350863
-1.63522 -0.89897 -0.342851
-1.56254 -0.858892 -0.470884
-1.32067 -0.610958 -0.896943
-1.26899 -0.689634 -0.987981
-1.16509 -0.545215 -1.17101
-1.4824 -0.504255 -0.612054
-1.11698 -1.375 -1.25575
-1.2054 -1.05443 -1.09999
-0.944049 -1.27616 -1.56038
-1.0297 -1.21047 -1.40951
-1.24662 -1.09687 -1.02738
-1.16854 -0.978825 -1.16494
-1.04908 -1.12894 -1.37536
-0.971956 -1.06255 -1.51123
-1.08613 -1.17975 -1.31011
-0.245992 -0.731356 -1.11528
-0.234503 -0.549183 -1.13551
-0.267666 -1.12389 -1.07709
-0.211545 -1.14179 -1.17596
-0.411597 -1.09369 -0.823552
-0.240542 -1.19941 -1.12488
-0.446651 -1.26096 -0.761802
-0.538969 -1.01716 -0.599178
-0.438143 -0.827353 -0.776789
-0.782836 -0.922451 -0.169591
-0.792604 -0.862962 -0.152384
-0.866613 -0.424303 -0.0220128
-0.674563 -0.46671 -0.36032
-0.799286 -0.580086 -0.140613
-0.906198 -0.657583 0.0477194
-0.829089 -0.584515 -0.0881129
-0.534839 -0.844842 -0.606454
-0.323516 -0.490071 -0.978712
-0.706755 -0.765937 -0.303613
-0.967063 -1.42287 -0.772248
-1.09067 -1.42287 -0.804992
-1.30669 -1.42287 -0.441938
-1.01612 -1.42287 -1.30562
-1.27841 -1.42287 -0.202036
-0.972202 -1.42287 -0.891997
-0.92953 -1.42287 -0.996945
-0.967293 -1.42287 -1.19534
-0.810782 -1.42287 -1.16876
-0.305966 -1.42287 -1.0224
-0.793484 -1.42287 -1.51619
-0.816807 -1.42287 -1.23488
-0.646163 -1.42287 -1.22983
-0.891846 -1.42287 -1.39716
-0.823298 -1.42287 -0.772886
-0.44776 -1.42287 -0.808016
-1.13744 -0.423272 -0.758223
-0.919104 -0.423272 -1.4177
-0.841143 -0.423272 -1.08606
-0.997687 -0.423272 -0.846883
-0.615424 -0.423272 -1.37053
-1.10972 -0.423272 -0.90208
-1.11332 -0.423272 -0.879378
-1.2263 -0.423272 -0.798542
-0.988781 -0.423272 -0.603491
-0.92157 -0.423272 -0.345952
-1.02656 -0.423272 -0.516947
-0.800644 -0.423272 -0.237514
-0.994148 -0.423272 -0.603965
-0.895233 -0.423272 0.00560269
-0.830451 -0.423272 -0.333815
-0.949452 -0.423272 -0.132374
-1.52508 -0.679323 -0.278988
-1.43424 -0.782627 -0.227417
-1.35076 -0.722449 -0.180029
-1.53036 -0.516273 -0.281984
-1.61401 -1.37305 -0.329471
-0.954763 -1.37751 0.0447711
-1.48481 -1.23355 -0.256125
-1.4415 -1.24217 -0.231537
-1.49004 -1.30167 -0.259095
-1.01724 -1.3283 0.00930462
-0.834683 -0.800592 -1.54197
-0.777135 -1.3231 -1.5093
-0.653496 -0.892235 -1.43911
-0.880036 -0.493665 -1.56771
-0.761548 -1.21057 -1.50045
-0.53974 -0.774234 -1.37454
-0.327705 -0.788029 -1.25417
-0.731839 -0.461416 -1.48359
-0.559162 -0.821337 -1.38556
-0.343017 -0.680214 -1.26286
1.07369 -0.784464 -2.7927
1.34337 -0.819543 -2.63812
1.23734 -0.713738 -2.6989
1.38211 -0.984423 -2.61592
1.28241 -0.960935 -2.67306
1.44857 -0.900555 -2.57782
1.11098 -0.715222 -2.77133
1.11986 -0.873777 -2.76624
1.07339 -1.38418 -2.79287
0.98013 -0.855378 -2.84633
1.03445 -1.32697 -2.8152
0.967339 -0.930322 -2.85366
0.950351 -1.27464 -2.8634
1.05057 -1.35888 -2.80595
0.951784 -1.08782 -2.86258
0.967303 -1.27454 -2.85368
1.30244 -1.2079 -3.55429
1.50417 -1.39923 -3.43866
1.48984 -1.37175 -3.44687
1.55199 -1.1483 -3.41125
1.5418 -1.3588 -3.41709
1.32992 -1.05206 -3.53854
1.48297 -1.39636 -3.45081
1.43425 -1.28382 -3.47874
1.51593 -0.788646 -3.43192
1.66482 -0.693482 -3.34657
1.41603 -0.668036 -3.48918
1.74086 -0.953084 -3.30299
1.56009 -0.945365 -3.40661
1.79914 -0.809254 -3.26959
1.60116 -1.00115 -3.38307
1.66021 -0.818927 -3.34922
1.25618 -1.42287 -2.77082
1.49499 -1.42287 -2.95301
1.43004 -1.42287 -2.80101
1.39917 -1.42287 -2.75933
1.44608 -1.42287 -2.62156
1.50945 -1.42287 -2.93054
1.57024 -1.42287 -2.94221
1.4958 -1.42287 -3.32619
1.25368 -1.42287 -3.1045
1.33772 -1.42287 -3.26013
1.02198 -1.42287 -2.98805
1.1892 -1.42287 -3.39842
1.41221 -1.42287 -3.24154
0.984304 -1.42287 -2.98827
1.02306 -0.590564 -2.98959
1.37749 -0.590564 -2.78398
1.07644 -0.590564 -2.92788
1.33804 -0.590564 -2.78615
0.912127 -0.590564 -2.90753
1.07097 -0.590564 -2.92495
1.1921 -0.590564 -2.90994
1.6874 -0.590564 -3.1504
1.52434 -0.590564 -3.32309
1.71216 -0.590564 -3.24455
1.5257 -0.590564 -3.29351
1.6539 -0.590564 -3.21686
1.74637 -0.590564 -3.21946
1.67765 -0.590564 -3.11945
1.55481 -0.805676 -2.74949
1.59113 -0.598347 -2.81284
1.57542 -0.898427 -2.78544
1.52427 -1.12266 -2.6962
1.56607 -0.725968 -2.76913
1.51987 -1.12077 -2.68853
1.53665 -0.743623 -2.71781
1.49324 -0.844939 -2.64207
1.55016 -0.663929 -2.74137
1.46092 -0.842036 -2.58569
1.63529 -1.15465 -2.8899
1.63011 -1.3044 -2.88085
1.48396 -1.35997 -2.62589
1.81939 -1.02059 -3.21108
1.78687 -1.24718 -3.15434
1.79556 -1.05316 -3.1695
1.8266 -1.21468 -3.22365
1.73708 -1.14556 -3.06748
1.73754 -1.30851 -3.06828
1.49425 -1.37296 -2.64383
0.922204 -0.683799 -2.94486
1.02046 -0.97228 -3.11628
1.06455 -1.00866 -3.1932
1.02388 -0.953685 -3.12224
0.908098 -1.25708 -2.92025
1.02884 -1.05845 -3.1309
0.90693 -1.05843 -2.91822
1.01634 -1.2742 -3.10909
0.964464 -0.794025 -3.01859
1.05469 -1.24296 -3.17601
1.20355 -0.796194 -3.4357
1.18514 -0.922253 -3.40359
1.25039 -0.957839 -3.51742
1.18601 -0.895353 -3.40511
0.985692 -0.632122 -3.05562
1.22022 -0.750936 -3.46478
1.26022 -0.907995 -3.53456
1.11048 -0.817929 -3.27333
1.24646 -0.643078 -3.51056
1.26851 -0.902153 -3.54902
-3.7599 -0.792695 -1.60285
-3.75215 -0.864095 -1.59839
-3.78804 -1.20385 -1.61906
-3.82641 -1.26708 -1.64116
-3.58663 -1.17342 -2.07687
-3.55093 -0.950291 -2.05631
-3.50765 -1.04626 -2.03139
-3.49691 -0.951004 -2.0252
-3.70993 -1.42287 -1.62752
-3.6318 -1.42287 -1.90797
-3.80701 -0.678923 -1.69413
-3.5869 -0.678923 -1.83
-3.81756 -0.933685 -1.68846
-3.83573 -0.846617 -1.65691
-3.79492 -0.963287 -1.72776
-3.75486 -0.961363 -1.79733
-3.76298 -1.22146 -1.78323
-3.76385 -1.17672 -1.78171
-3.83672 -0.694141 -1.6552
-3.71964 -1.34129 -1.85848
-3.80013 -1.3028 -1.71873
-3.79141 -1.2281 -1.73386
-3.65079 -0.705989 -1.97804
-3.69275 -1.00381 -1.90517
-3.69045 -0.729401 -1.90916
-3.71693 -0.812117 -1.86318
-3.63484 -0.957512 -2.00573
-3.6675 -0.795118 -1.94901
-3.60265 -0.914975 -2.06162
-3.71043 -0.872826 -1.87448
-3.59811 -0.868538 -2.06951
-3.71112 -1.00381 -1.87328
-3.17261 -1.03595 -1.26462
-3.20439 -0.820268 -1.28293
-3.20962 -1.33622 -1.28594
-3.24148 -1.30403 -1.30429
-2.95756 -1.03947 -1.71458
-2.9927 -1.03992 -1.73481
-2.93226 -0.88433 -1.70001
-2.98172 -0.813789 -1.72849
-3.15868 -1.42287 -1.3722
-3.22485 -1.42287 -1.34963
-3.09282 -0.678923 -1.47293
-2.99569 -0.678923 -1.56785
-3.11969 -1.15141 -1.31865
-3.04612 -0.693097 -1.44639
-3.09604 -1.05832 -1.35971
-3.12187 -1.13369 -1.31486
-3.04034 -0.860649 -1.45643
-3.06761 -0.965515 -1.40908
-3.04884 -0.892944 -1.44168
-3.05291 -0.710925 -1.4346
-3.13122 -1.22867 -1.29862
-3.07634 -0.805688 -1.39392
-3.1262 -1.4085 -1.30734
-2.95046 -1.12229 -1.6125
-3.00232 -1.16252 -1.52244
-2.95037 -1.33279 -1.61265
-3.02888 -1.0668 -1.47632
-3.02165 -1.06373 -1.48888
-2.91477 -1.28651 -1.67446
-3.05826 -1.39086 -1.42532
-2.9618 -1.30311 -1.5928
-3.01211 -1.16446 -1.50544
-3.26845 -1.06034 -1.31982
-3.60875 -0.991812 -1.51581
-3.26461 -1.03491 -1.31761
-3.29336 -0.87524 -1.33417
-3.55859 -0.992131 -1.48691
-3.33968 -1.06455 -1.36084
-3.4173 -0.977369 -1.40554
-3.49386 -0.94249 -1.44963
-3.62083 -1.15789 -1.52276
-3.66387 -0.979212 -1.54755
-3.7069 -1.3777 -1.57233
-3.64787 -1.42269 -1.53833
-3.5902 -1.08749 -1.50512
-3.71886 -0.958119 -1.57922
-3.63042 -1.33222 -1.52828
-3.58351 -1.04892 -1.50127
-3.36404 -0.992911 -1.94868
-3.47279 -0.913849 -2.0113
-3.38047 -1.3317 -1.95814
-3.32387 -1.32268 -1.92554
-3.3571 -1.14076 -1.94468
-3.3101 -1.35261 -1.91761
-3.43239 -1.0424 -1.98804
-3.37113 -1.33938 -1.95276
-3.21227 -1.06073 -1.86127
-3.31467 -0.907541 -1.92024
-3.19396 -1.13668 -1.85072
-3.22325 -1.01334 -1.86759
-3.16261 -1.02907 -1.83267
-3.30297 -0.978285 -1.91351
-3.06489 -1.11836 -1.77639
-3.10452 -0.997882 -1.79921
-3.25558 -1.42287 -1.46871
-3.46477 -1.42287 -1.4973
-3.45957 -1.42287 -1.58233
-3.21463 -1.42287 -1.57113
-3.25249 -1.42287 -1.58266
-3.29874 -1.42287 -1.44864
-3.38951 -1.42287 -1.49635
-3.33502 -1.42287 -1.82269
-3.4348 -1.42287 -1.8849
-3.62201 -1.42287 -1.70695
-3.69276 -1.42287 -1.63498
-3.34272 -1.42287 -1.72889
-3.44784 -1.42287 -1.82499
-3.54113 -1.42287 -1.64366
-3.39261 -0.833109 -1.96513
-3.28643 -0.778914 -1.90398
-3.12307 -0.751851 -1.80989
-3.16936 -0.702096 -1.83655
-3.04121 -0.678923 -1.72094
-3.07823 -0.678923 -1.76546
-3.3951 -0.740866 -1.39276
-3.40822 -0.746942 -1.40032
-3.6307 -0.741938 -1.52844
-3.66336 -0.841512 -1.54725
-3.44414 -0.678923 -1.43271
-3.34722 -0.678923 -1.38067
-3.68088 -0.819482 -1.59196
-3.64846 -0.80333 -1.5733
-3.38409 -0.753134 -1.42104
-3.27245 -0.765684 -1.35674
-3.30685 -0.743796 -1.87322
-3.38864 -0.704135 -1.92033
-3.32694 -0.842023 -1.8848
-3.2779 -0.765505 -1.85655
-3.54633 -0.85494 -1.75383
-3.54872 -0.85494 -1.73657
-3.31807 -0.85494 -1.77477
-3.60456 -0.85494 -1.78812
-3.5751 -0.85494 -1.78696
-3.49637 -0.85494 -1.82832
-3.39938 -0.85494 -1.45893
-3.31222 -0.85494 -1.4432
-3.23233 -0.85494 -1.43794
-3.24142 -0.85494 -1.37431
-3.48283 -0.85494 -1.51772
-3.34791 -0.85494 -1.53871
-3.20527 -0.851574 -1.392
-3.0683 -0.787043 -1.62983
-3.21049 -0.782648 -1.38293
-3.157 -0.711025 -1.47581
-3.57845 -0.756498 -1.84178
-3.58886 -0.751642 -1.8237
-3.62286 -0.847047 -1.76466
-3.63064 -0.796781 -1.75115
-2.97107 -0.973841 -2.94706
-2.8499 -0.933898 -3.15743
-2.97011 -1.08988 -2.94871
-2.83724 -0.978816 -3.17942
-2.96005 -0.962337 -2.96619
-2.85379 -1.09828 -3.15069
-2.9201 -0.876543 -3.03556
-2.96439 -1.09677 -2.95865
-2.83235 -1.29194 -3.18791
-2.73666 -1.19354 -3.35405
-2.76257 -1.2209 -3.30908
-2.80105 -1.03664 -3.24225
-2.76752 -1.01991 -3.30049
-2.78581 -1.14503 -3.26873
-2.74943 -1.22451 -3.33189
-2.80986 -1.14626 -3.22696
-2.31714 -1.32047 -2.90942
-2.32564 -1.33038 -2.89467
-2.22097 -1.34075 -3.07641
-2.22562 -1.13738 -3.06833
-2.33844 -1.15551 -2.87244
-2.32428 -1.26326 -2.89702
-2.34369 -1.39391 -2.86331
-2.23362 -0.9595 -3.05444
-2.41152 -0.88132 -2.74554
-2.44802 -0.960438 -2.68218
-2.39836 -1.11383 -2.76839
-2.29158 -1.01071 -2.9538
-2.41828 -0.967516 -2.7338
-2.24443 -0.890636 -3.03566
-2.32558 -0.994742 -2.89476
-2.24363 -0.89636 -3.03705
-2.71676 -1.42287 -3.24456
-2.74944 -1.42287 -3.11383
-2.62598 -1.42287 -3.00743
-2.75562 -1.42287 -2.80696
-2.809 -1.42287 -3.02244
-2.70083 -1.42287 -3.12939
-2.6648 -1.42287 -3.13029
-2.83452 -1.42287 -3.18401
-2.68729 -1.42287 -3.0011
-2.62688 -1.42287 -3.14021
-2.49142 -1.42287 -3.22175
-2.39723 -1.42287 -2.93327
-2.64474 -1.42287 -3.27213
-2.57785 -1.42287 -3.18415
-2.34999 -1.42287 -2.93153
-2.31297 -1.42287 -3.13078
-2.56875 -1.42287 -2.99194
-2.642 -1.42287 -3.24526
-2.63489 -0.865444 -3.22208
-2.68921 -0.865444 -3.3194
-2.7644 -0.865444 -3.0871
-2.64355 -0.865444 -3.06525
-2.88203 -0.865444 -3.07711
-2.77887 -0.865444 -3.06249
-2.73334 -0.865444 -3.20491
-2.88009 -0.865444 -2.99076
-2.87678 -0.865444 -3.01544
-2.55453 -0.865444 -2.95148
-2.49964 -0.865444 -2.72678
-2.47448 -0.865444 -2.6861
-2.41497 -0.865444 -2.83057
-2.55435 -0.865444 -2.75032
-2.50621 -0.865444 -2.83275
-2.77597 -0.865444 -2.87318
-2.40501 -0.865444 -2.83746
-2.63032 -0.865444 -2.99327
-2.94244 -1.04465 -2.90879
-2.83876 -0.989076 -2.84908
-2.78523 -1.01515 -2.81825
-2.92995 -0.941775 -2.9016
-2.85359 -1.25911 -2.85762
-2.85706 -1.24654 -2.85962
-2.74861 -0.896921 -2.79716
-2.97517 -0.972878 -2.92764
-2.73541 -0.992834 -2.78956
-2.81912 -1.09518 -2.83777
-2.52699 -1.25112 -2.66952
-2.58765 -1.37455 -2.70446
-2.72162 -1.38471 -2.78161
-2.71815 -1.23108 -2.77962
-2.78198 -1.38759 -2.81638
-2.53048 -1.28938 -2.67153
-2.54286 -1.2096 -2.67866
-2.60717 -1.15409 -2.7157
-2.54789 -1.24995 -2.68156
-2.65772 -1.16143 -2.74481
-2.49011 -1.21781 -3.23584
-2.58789 -1.30518 -3.29216
-2.56419 -1.091 -3.27851
-2.64313 -1.28325 -3.32397
-2.65416 -1.13597 -3.33032
-2.53456 -1.16387 -3.26144
-2.60476 -1.21258 -3.30187
-2.63606 -1.42133 -3.3199
-2.60486 -1.13107 -3.30193
-2.58551 -1.11848 -3.29079
-2.35116 -1.10939 -3.15581
-2.49488 -1.06649 -3.23859
-2.34087 -1.02689 -3.14989
-2.51179 -0.957783 -3.24833
-2.35749 -1.1251 -3.15946
-2.56558 -0.91695 -3.27931
-2.55199 -1.03821 -3.27148
-2.33778 -0.994825 -3.14811
-2.38288 -1.03474 -3.17408
-2.22331 -1.03482 -3.08218
1.47721 -0.789407 -2.74739
1.27266 -0.973094 -2.8652
1.30658 -0.935079 -2.84567
1.48836 -1.01271 -2.74097
1.24258 -0.707057 -2.88252
1.28094 -0.906785 -2.86043
1.39877 -0.635535 -2.79257
1.50784 -0.734422 -2.72975
1.2361 -0.982364 -2.88626
1.12091 -1.25618 -2.9526
1.26205 -1.2646 -2.87131
1.19309 -1.20234 -2.91103
1.09913 -1.40136 -2.96514
1.16563 -0.947265 -2.92684
1.16468 -1.41101 -2.92739
1.13058 -0.779664 -2.94703
1.51747 -1.34775 -3.43334
1.52224 -1.40859 -3.43059
1.58655 -1.11741 -3.39355
1.53802 -0.95414 -3.4215
1.52964 -1.10475 -3.42633
1.58806 -1.20528 -3.39268
1.56833 -0.979613 -3.40405
1.45635 -1.00887 -3.46854
1.68388 -0.954458 -3.3375
1.59041 -0.751306 -3.39133
1.6436 -0.768073 -3.36069
1.78603 -0.762009 -3.27867
1.62408 -0.735023 -3.37194
1.62121 -0.961636 -3.37359
1.75606 -0.923487 -3.29593
1.74072 -0.783344 -3.30476
1.4213 -1.42287 -2.78264
1.32734 -1.42287 -3.02019
1.22682 -1.42287 -2.9098
1.29427 -1.42287 -2.85791
1.19268 -1.42287 -2.95693
1.42546 -1.42287 -2.96016
1.42256 -1.42287 -3.42289
1.44137 -1.42287 -3.39278
1.48757 -1.42287 -3.40039
1.41644 -1.42287 -3.12828
1.37498 -1.42287 -3.18469
1.449 -1.42287 -3.37755
1.27237 -0.609189 -3.03763
1.32437 -0.609189 -3.07083
1.12642 -0.609189 -3.09245
1.30119 -0.609189 -2.9551
1.26404 -0.609189 -3.21076
1.44477 -0.609189 -2.93195
1.66332 -0.609189 -3.24527
1.61566 -0.609189 -3.06938
1.51253 -0.609189 -2.99107
1.66538 -0.609189 -3.24495
1.4625 -0.609189 -3.14584
1.61817 -0.609189 -3.28608
1.51572 -0.844378 -2.73143
1.53464 -0.8594 -2.76428
1.56121 -0.962918 -2.81041
1.59767 -1.01717 -2.87371
1.55091 -1.0791 -2.79253
1.62305 -0.893871 -2.91779
1.61587 -0.851025 -2.90532
1.52926 -1.26966 -2.75494
1.65084 -1.04663 -2.96604
1.59647 -0.836628 -2.87163
1.73763 -1.16043 -3.11673
1.73046 -1.1516 -3.10428
1.74541 -1.10155 -3.13024
1.62104 -1.24462 -2.91429
1.72267 -1.33443 -3.09076
1.65173 -1.33403 -2.96758
1.73931 -1.06548 -3.11966
1.65391 -1.24217 -2.97137
1.70801 -1.07912 -3.0653
1.68665 -1.35039 -3.02821
1.09088 -0.809674 -3.04259
1.18987 -1.02539 -3.21447
1.1326 -1.33559 -3.11502
1.18878 -1.40067 -3.21257
1.17204 -1.0834 -3.1835
1.10442 -1.38313 -3.06608
1.10956 -0.811897 -3.07502
1.14399 -1.20034 -3.1348
1.06583 -1.18728 -2.99908
1.19429 -1.38353 -3.22213
1.1497 -0.627958 -3.14471
1.1049 -0.645844 -3.06692
1.3366 -0.659135 -3.46923
1.32178 -0.843515 -3.44349
1.24698 -0.653411 -3.31362
1.29619 -0.730429 -3.39906
1.35413 -0.953195 -3.49967
1.24801 -0.776397 -3.31541
1.2508 -0.830728 -3.32025
1.21765 -0.999577 -3.26269
-1.46367 -0.806952 -2.1226
-1.32414 -1.0019 -2.02851
-1.32856 -0.863375 -2.03149
-1.43042 -0.823841 -2.10018
-1.14666 -0.999366 -1.90884
-1.36763 -0.922913 -2.05784
-1.14612 -0.893606 -1.90848
-1.17812 -0.884003 -1.93005
-1.27001 -1.02033 -1.99202
-1.22864 -1.01429 -1.96412
-1.44049 -1.11372 -2.10697
-1.5465 -0.833185 -2.17845
-1.48988 -1.36367 -2.14027
-1.47103 -1.12536 -2.12756
-1.3649 -1.16994 -2.056
-1.54418 -0.936542 -2.17688
-1.52269 -1.1879 -2.16239
-1.41697 -1.32682 -2.09111
-1.41618 -1.08655 -2.09057
-1.39929 -1.41324 -2.07919
-1.06106 -1.21828 -2.4356
-1.25093 -1.1378 -2.56363
-1.15895 -1.25529 -2.50161
-1.11899 -1.18102 -2.47467
-1.17751 -1.23764 -2.51413
-1.25337 -1.08174 -2.56527
-1.19465 -1.37564 -2.52568
-1.14254 -1.16189 -2.49054
-1.24676 -1.26489 -2.56082
-1.0525 -1.13345 -2.42983
-1.05539 -0.808022 -2.43178
-0.806099 -0.925219 -2.26368
-0.995976 -1.02414 -2.39172
-1.22702 -0.820883 -2.54751
-0.839535 -0.87029 -2.28623
-1.23352 -0.845289 -2.55189
-1.01359 -1.01614 -2.40359
-0.822903 -0.97243 -2.27502
-0.979733 -0.951435 -2.38076
-1.03137 -0.925937 -2.41558
-1.04813 -1.42287 -1.96868
-1.43316 -1.42287 -2.14119
-1.13962 -1.42287 -2.06243
-1.3146 -1.42287 -2.14495
-1.20545 -1.42287 -2.18746
-1.1408 -1.42287 -1.92556
-1.10947 -1.42287 -2.11351
-1.10263 -1.42287 -2.35082
-1.06336 -1.42287 -2.4032
-1.23707 -1.42287 -2.24594
-1.2957 -1.42287 -2.27944
-1.32486 -1.42287 -2.43072
-1.19834 -1.42287 -2.47275
-1.22665 -1.42287 -2.29534
-1.31364 -0.789106 -2.11808
-1.33457 -0.789106 -2.30125
-1.24362 -0.789106 -2.06193
-1.19154 -0.789106 -2.14226
-1.22126 -0.789106 -2.07942
-1.1739 -0.789106 -2.06385
-1.47439 -0.789106 -2.19503
-0.860261 -0.789106 -2.23647
-0.899282 -0.789106 -2.1272
-0.901848 -0.789106 -2.21914
-1.01155 -0.789106 -2.32535
-0.926569 -0.789106 -2.12171
-1.07286 -0.789106 -2.23116
-0.999729 -0.789106 -2.00274
-0.972772 -0.871628 -2.00893
-0.97845 -1.02793 -2.00051
-0.953473 -0.877164 -2.03755
-0.954415 -1.03731 -2.03616
-1.0422 -1.10901 -1.90596
-1.00131 -1.04778 -1.96661
-0.963324 -0.858909 -2.02294
-0.943399 -0.889051 -2.05249
-0.919427 -1.21826 -2.08805
-0.923158 -1.21972 -2.08251
-0.812281 -1.22585 -2.24695
-0.826727 -1.32042 -2.22552
-0.876633 -1.13181 -2.15151
-0.820365 -1.12369 -2.23496
-0.911038 -1.28638 -2.10049
-0.909568 -1.13071 -2.10267
-1.5136 -0.878311 -2.23723
-1.49634 -1.23017 -2.26284
-1.47316 -0.99321 -2.2972
-1.51644 -1.13143 -2.23302
-1.54962 -1.30731 -2.18381
-1.43129 -1.27752 -2.35931
-1.44126 -1.33257 -2.34452
-1.49771 -1.37781 -2.26081
-1.37272 -0.867021 -2.44617
-1.29416 -1.02783 -2.56268
-1.33992 -1.0827 -2.49482
-1.461 -0.811547 -2.31524
-1.40368 -0.937851 -2.40025
-1.35753 -0.947847 -2.46869
-1.40228 -1.04463 -2.40233
-1.39053 -1.06492 -2.41975
-2.6239 -0.957518 -3.76104
-2.34417 -0.716671 -4.24674
-2.55194 -0.675458 -3.88599
-2.63056 -0.837183 -3.74948
-2.47432 -0.921576 -4.02076
-2.4798 -0.851926 -4.01125
-2.57881 -0.986551 -3.83933
-2.64297 -0.969145 -3.72793
-2.44059 -0.633208 -4.07933
-2.61226 -0.97189 -3.78125
-2.37287 -1.41054 -4.19691
-2.41069 -1.16303 -4.13123
-2.17356 -1.22553 -4.54298
-2.3177 -0.918455 -4.2927
-2.17492 -1.12527 -4.54061
-2.41485 -1.39137 -4.12401
-2.48582 -1.1369 -4.0008
-2.40489 -1.23928 -4.14131
-2.35705 -1.27844 -4.22438
-1.56226 -1.26038 -4.06361
-1.75431 -1.05178 -3.73016
-1.58794 -1.05604 -4.01901
-1.71759 -0.936646 -3.79392
-1.7946 -1.22269 -3.6602
-1.81482 -1.33105 -3.62509
-1.75285 -1.31561 -3.73268
-1.54634 -1.1154 -4.09126
-1.53667 -1.29318 -4.10804
-1.73255 -1.28968 -3.76793
-1.59366 -0.662163 -4.0091
-1.68747 -0.643135 -3.84621
-1.9789 -0.826949 -3.34019
-1.88114 -0.767103 -3.50994
-2.03165 -0.729893 -3.2486
-1.91642 -0.842361 -3.44868
-1.87397 -0.978506 -3.52239
-2.10389 -0.691105 -3.12317
-1.99522 -0.86866 -3.31186
-2.05527 -0.912179 -3.20759
-2.53466 -1.42287 -3.26431
-2.67164 -1.42287 -3.40223
-2.26667 -1.42287 -3.71611
-2.62141 -1.42287 -3.29664
-2.30503 -1.42287 -3.62029
-2.60459 -1.42287 -3.37143
-2.54891 -1.42287 -3.39264
-2.35151 -1.42287 -4.13318
-2.17744 -1.42287 -3.99562
-2.11972 -1.42287 -3.9782
-1.61004 -1.42287 -4.18251
-2.02525 -1.42287 -3.85529
-1.97151 -1.42287 -3.68622
-2.15308 -1.42287 -3.8745
-1.71678 -1.42287 -3.85059
-2.07876 -1.42287 -3.77315
-1.80053 -1.42287 -4.29381
-1.86187 -1.42287 -3.6926
-2.39167 -0.613036 -3.74319
-2.14809 -0.613036 -3.9124
-2.14469 -0.613036 -3.99479
-1.99077 -0.613036 -4.37804
-2.07515 -0.613036 -4.18133
-2.22432 -0.613036 -3.7798
-1.98582 -0.613036 -4.35531
-2.23942 -0.613036 -4.11398
-2.01306 -0.613036 -4.31779
-2.54035 -0.613036 -3.35914
-2.56623 -0.613036 -3.33768
-2.01179 -0.613036 -3.64326
-2.38381 -0.613036 -3.43043
-2.50221 -0.613036 -3.49377
-2.44661 -0.613036 -3.49546
-1.98004 -0.613036 -3.53073
-2.18849 -0.613036 -3.75526
-2.13937 -0.613036 -3.58194
-2.78548 -1.0138 -3.35918
-2.79736 -0.854862 -3.36602
-2.66761 -0.67282 -3.29129
