ply
format ascii 1.0
comment Created by Open3D
element vertex 1816
property double x
property double y
property double z
end_header
4.21754 -0.479484 1.33237
4.28256 -0.666403 1.23163
3.6251 -0.788826 2.25031
3.72704 -1.01814 2.09237
3.81555 -1.10754 1.95523
3.98845 -1.15478 1.68733
3.98189 -1.14808 1.6975
3.73066 -1.18204 2.08675
3.73038 -1.17698 2.0872
3.6556 -0.916377 2.20306
3.715 -1.20199 2.11101
3.70228 -0.945171 2.13073
3.08149 -0.694262 1.95258
3.18506 -0.791866 1.79209
3.09728 -1.1278 1.92811
3.23854 -1.31234 1.70924
3.14476 -0.97153 1.85454
3.32593 -0.794017 1.57384
3.49302 -1.00414 1.31494
3.35633 -1.13929 1.52673
3.49855 -0.991815 1.30637
3.51647 -1.27946 1.2786
3.3049 -0.671039 1.60641
3.43656 -0.747497 1.40241
3.32863 -0.49569 1.56964
3.90959 -0.897341 0.669482
3.95261 -0.493236 0.602835
3.25366 -0.504742 1.68581
3.31639 -0.651046 1.58862
3.43169 -0.738108 1.40996
3.98166 -0.652086 0.557817
3.4216 -0.630052 1.4256
4.2322 -1.33533 0.754186
3.8895 -1.33533 1.73595
3.87185 -1.33533 1.40221
3.66815 -1.33533 2.00937
4.04622 -1.33533 1.25801
3.73378 -1.33533 1.73151
3.95828 -1.33533 1.60541
3.14167 -1.33533 1.9679
3.48709 -1.33533 1.63336
3.32909 -1.33533 1.92898
3.47651 -1.33533 1.45064
3.53729 -1.33533 1.31621
3.57737 -1.33533 1.83107
3.73317 -1.33533 1.66936
3.55454 -0.479017 1.96827
3.61529 -0.479017 2.11563
3.76026 -0.479017 1.52512
3.57556 -0.479017 1.81379
3.78041 -0.479017 1.56979
3.71067 -0.479017 2.08147
3.50539 -0.479017 2.19351
3.90723 -0.479017 1.08994
3.81047 -0.479017 0.846515
3.73806 -0.479017 0.944982
3.76956 -0.479017 1.22227
3.89615 -0.479017 0.705857
3.92835 -0.479017 1.30964
3.76131 -0.479017 1.37296
4.29035 -0.894648 0.6737
4.32058 -0.938104 0.693211
4.41365 -0.926972 0.753274
4.38332 -1.1878 0.733701
4.3605 -1.23354 0.71897
4.03041 -1.28026 0.505933
3.44763 -1.02444 2.24645
3.48966 -0.826222 2.27358
3.49031 -0.898564 2.274
3.28387 -0.877772 2.14076
3.20839 -0.705965 2.09205
3.21023 -0.761172 2.09324
-0.390022 -0.541228 8.47148
-0.454468 -0.508425 8.57134
-0.0996424 -0.447357 8.02156
-0.324276 -0.549437 8.36961
-0.285805 -0.832689 8.31
-0.572748 -0.46815 8.7546
-0.136017 -0.764154 8.07792
-0.297855 -0.528785 8.32868
-0.58731 -0.398472 8.77717
-0.332154 -0.661298 8.38182
-0.523289 -1.19257 8.67797
-0.634116 -1.0634 8.84969
-0.450052 -0.750381 8.56449
-0.391181 -1.15196 8.47328
-0.622108 -1.11345 8.83108
-0.41233 -1.09784 8.50605
-0.446097 -0.786779 8.55837
-0.5907 -0.860406 8.78242
-0.394909 -1.16164 8.47906
-0.386968 -1.14736 8.46675
-0.99634 -1.30146 8.17045
-0.914925 -1.26493 8.0443
-1.18997 -1.05383 8.47047
-1.19162 -1.07637 8.47302
-1.01978 -0.830591 8.20676
-1.11234 -0.684324 8.35019
-1.01636 -0.81306 8.20148
-1.04559 -0.748478 8.24676
-1.13414 -1.31357 8.38396
-1.04587 -0.800824 8.24719
-0.620974 -0.405118 7.58885
-0.960591 -0.548989 8.11506
-0.969427 -0.60123 8.12875
-1.07202 -0.556061 8.28771
-0.940639 -0.647718 8.08414
-0.901806 -0.697845 8.02398
-0.739404 -0.484819 7.77234
-0.810177 -0.670541 7.882
-0.718127 -0.474994 7.73938
-1.13298 -0.482639 8.38216
-0.585149 -1.33533 8.2524
-0.292672 -1.33533 7.89219
-0.431915 -1.33533 7.97478
-0.451382 -1.33533 8.09922
-0.618859 -1.33533 8.6353
-0.194445 -1.33533 7.99131
-0.392278 -1.33533 8.00593
-0.784221 -1.33533 8.58755
-0.919853 -1.33533 8.30559
-0.955573 -1.33533 8.41517
-1.04971 -1.33533 8.39817
-0.704366 -1.33533 8.73135
-0.794769 -1.33533 8.4113
-0.801505 -1.33533 8.13808
-0.421498 -0.381564 8.16124
-0.622995 -0.381564 8.24338
-0.711609 -0.381564 8.4973
-0.713791 -0.381564 8.73639
-0.478789 -0.381564 8.40731
-0.821228 -0.381564 8.64527
-0.580833 -0.381564 8.75594
-0.602779 -0.381564 7.99501
-0.411015 -0.381564 8.01574
-0.735531 -0.381564 8.13201
-0.624726 -0.381564 8.18649
-0.58996 -0.381564 8.16987
-0.548187 -0.381564 8.1464
-0.53562 -0.381564 8.04733
-0.322741 -0.477584 7.76067
-0.135396 -0.953651 7.88159
-0.22859 -0.811457 7.82144
-0.303479 -0.786659 7.77311
-0.0740947 -1.0927 7.92115
-0.0768653 -1.13463 7.91936
-0.421554 -1.20869 7.6969
-0.560008 -1.15326 7.60754
-0.382135 -1.09988 7.72234
-0.394555 -1.19665 7.71433
-0.338462 -1.09111 7.75053
-0.270507 -1.13696 7.79439
-0.833567 -0.945342 8.75365
-0.784674 -1.10328 8.7852
-0.707557 -0.518465 8.83498
-0.724284 -1.21845 8.82418
-0.917365 -1.17542 8.69957
-0.912862 -1.09238 8.70247
-0.95035 -0.460524 8.67828
-0.868391 -0.481226 8.73117
-1.0955 -0.842954 8.5846
-1.09937 -0.578143 8.5821
-0.91747 -0.708584 8.6995
-0.950104 -0.526388 8.67844
0.497188 -0.848109 7.09681
0.488249 -0.811633 7.11066
0.525631 -0.842813 7.05273
0.483659 -0.387306 7.11777
0.531722 -0.654718 7.0433
0.512191 -0.584847 7.07356
0.352684 -0.830628 7.32071
0.399844 -1.33226 7.24763
0.408931 -1.01899 7.23355
0.420493 -1.28467 7.21564
0.376733 -1.13757 7.28344
0.401399 -0.79379 7.24522
-0.169987 -0.628807 6.96645
-0.149877 -1.11609 6.9353
-0.149835 -1.32497 6.93523
-0.153952 -1.10222 6.94161
-0.0933522 -0.791064 6.84771
-0.0704822 -0.959468 6.81228
-0.101235 -0.461876 6.85993
0.0348878 -0.660289 6.64901
0.00654618 -0.43671 6.69293
0.0322995 -0.670248 6.65302
-0.0610026 -0.713473 6.79759
0.0303352 -0.745627 6.65607
0.438182 -1.33533 6.95268
0.334518 -1.33533 7.19339
0.308339 -1.33533 7.07108
0.414946 -1.33533 6.96007
-0.0263343 -1.33533 6.8625
0.195872 -1.33533 7.17103
-0.0205344 -1.33533 7.00765
0.118881 -1.33533 7.08861
0.273461 -0.381564 7.15696
0.131068 -0.381564 7.15306
0.331934 -0.381564 7.01232
0.160952 -0.381564 7.13139
0.105847 -0.381564 6.87649
-0.0561282 -0.381564 6.79777
0.0953579 -0.381564 6.81231
0.216108 -0.381564 6.74063
0.455555 -1.0314 6.88832
0.491599 -0.829332 6.91158
0.388862 -0.932825 6.84528
0.532232 -0.807478 6.93781
0.410799 -0.902277 6.85943
0.47503 -0.389204 6.90089
0.440006 -0.487092 6.87829
0.367791 -0.472324 6.83168
0.348313 -0.907967 6.81911
0.416431 -0.383853 6.86307
0.30577 -0.921658 6.79165
0.142225 -1.07228 6.6861
0.183994 -0.870556 6.71306
0.067967 -1.21253 6.63817
0.251432 -1.20461 6.75658
0.3169 -1.27836 6.79883
0.477045 -1.26334 6.90219
0.132887 -1.2086 6.68007
0.299621 -0.886519 6.78768
0.168689 -0.922983 6.70318
0.214667 -0.889619 7.23213
0.280177 -0.83005 7.27441
0.148829 -1.24462 7.18964
0.287472 -0.504312 7.27912
0.164938 -0.791978 7.20003
0.315501 -0.986242 7.29721
0.165504 -0.736842 7.2004
0.231287 -1.05271 7.24285
0.204388 -0.710971 7.22549
0.229911 -0.767761 7.24197
-0.13481 -0.781689 7.00658
-0.0858613 -0.493722 7.03817
0.259939 -0.419226 7.26135
0.0239913 -0.781694 7.10907
0.0544401 -0.660041 7.12872
0.108719 -0.810887 7.16375
-0.0698926 -0.455725 7.04847
0.0235315 -0.609008 7.10877
-0.115833 -0.658402 7.01882
-0.125712 -0.607323 7.01245
-0.328443 -0.215524 5.18226
-0.776083 -0.633924 4.89335
0.127132 -0.341062 5.47628
-0.459006 -0.630174 5.09799
-0.807495 -0.365457 4.87308
-0.191327 -0.15108 5.27075
-0.835068 -0.529554 4.85528
0.601783 -0.0575727 5.78262
-0.751966 -0.128669 4.90892
0.595225 -0.0921193 5.77839
0.83293 -0.947408 5.9318
0.669503 -0.298711 5.82633
0.475448 -0.388795 5.70109
0.761859 -0.365045 5.88593
0.627196 -0.623822 5.79902
0.93744 -0.878461 5.99925
0.570171 -0.416221 5.76222
0.564493 -0.974981 5.75855
0.408263 -0.641075 5.65772
-0.0155342 -1.24232 5.38421
0.155491 -0.53206 6.656
-0.036522 -0.867334 6.53208
-0.0226422 -0.993128 6.54104
0.113572 -0.287667 6.62895
-0.4612 -1.01073 6.25799
-0.250316 -0.815335 6.3941
-0.211262 -1.18188 6.4193
-0.0340281 -1.30305 6.53369
0.174494 -0.19558 6.66827
0.266241 -0.785143 6.72748
-1.65263 -0.680614 5.48905
0.121785 -0.05229 6.63425
-0.575198 -0.490618 6.18442
0.123135 -0.102722 6.63512
-0.467 -0.248593 6.25425
-1.10294 -0.444995 5.84381
-0.551678 -0.595225 6.1996
-0.715939 -0.595207 6.09358
-0.853774 -0.604039 6.00463
-0.459482 -0.353229 6.2591
-0.10064 -1.33533 5.69831
-0.651227 -1.33533 4.97412
-0.393699 -1.33533 5.14934
-0.795986 -1.33533 5.32217
-0.309401 -1.33533 5.44241
-0.22134 -1.33533 5.30549
-0.349224 -1.33533 5.48962
0.381724 -1.33533 6.6238
0.424693 -1.33533 6.25469
-0.29301 -1.33533 5.96541
-0.0150793 -1.33533 6.21376
-0.30936 -1.33533 6.26941
-0.539313 -1.33533 6.08917
0.0770771 -1.33533 6.07771
0.260602 -0.0288709 6.12328
-0.0809765 -0.0288709 5.39303
-0.184083 -0.0288709 5.57097
0.567156 -0.0288709 6.28649
-0.521935 -0.0288709 5.11443
-0.400513 -0.0288709 5.63112
0.0602632 -0.0288709 5.47425
-0.858161 -0.0288709 5.17722
-1.03882 -0.0288709 5.78102
-0.633601 -0.0288709 5.81577
-0.622342 -0.0288709 5.6791
-1.0041 -0.0288709 5.64984
-0.505385 -0.0288709 5.65222
-1.3952 -0.0288709 5.40877
-1.34281 -0.148963 4.76971
-1.44291 -0.167971 4.92481
-1.24924 -1.12555 4.62473
-1.4477 -0.964323 4.93223
-1.50204 -1.12935 5.01643
-1.71537 -0.682855 5.34696
0.855767 -0.596333 6.20755
0.957229 -1.281 6.05035
0.785555 -1.11955 6.31634
0.826876 -0.369867 6.25232
0.670848 -0.628165 6.49407
0.766835 -0.358413 6.34535
-2.51846 0.568832 7.66623
-2.52091 0.478952 7.66464
-2.96767 0.692267 7.3763
-2.75718 0.490442 7.51215
-3.05112 0.636791 7.32245
-3.25786 0.758636 7.18902
-2.8744 0.553391 7.4365
-2.61753 0.65501 7.60228
-2.68993 0.434295 7.55555
-2.89471 0.631132 7.42339
-3.10743 0.188573 7.2861
-3.14861 0.260361 7.25953
-3.18016 0.120088 7.23916
-3.03685 0.170585 7.33165
-3.15484 0.510018 7.2555
-2.94158 0.0577721 7.39314
-3.21676 0.180817 7.21554
-2.92188 0.386057 7.40586
-3.12074 0.310694 7.27751
-3.00088 0.313311 6.89552
-2.8758 0.280057 6.97625
-2.74988 0.292686 7.05752
-3.00625 0.275323 6.89206
-3.06055 0.258499 6.85701
-2.88029 0.192692 6.97335
-2.77186 0.478347 7.04333
-2.88971 0.219287 6.96727
-3.02301 0.517153 6.88124
-2.50808 0.565177 7.21357
-2.2919 0.549149 7.3531
-2.52043 0.509527 7.2056
-2.72256 0.735114 7.07515
-2.23896 0.659239 7.38726
-2.42388 0.457632 7.26792
-2.56414 0.620728 7.17739
-2.56036 0.633375 7.17983
-2.79323 0.665594 7.02954
-2.62463 0.455756 7.13835
-2.4829 0.0495158 7.57923
-2.74255 0.0495158 7.4764
-2.53551 0.0495158 7.63439
-2.58779 0.0495158 7.44124
-2.65715 0.0495158 7.56747
-2.88929 0.0495158 7.11292
-3.14163 0.0495158 7.04325
-3.13193 0.0495158 7.18036
-2.72668 0.0495158 7.08956
-2.81013 0.0495158 7.2571
-2.69254 0.768022 7.44113
-2.60123 0.768022 7.57852
-3.0044 0.768022 7.16974
-3.21561 0.768022 7.14827
-2.71603 0.768022 7.45426
-2.64545 0.768022 7.30554
-2.61528 0.768022 7.22055
-2.66787 0.768022 7.29969
-2.34899 0.768022 7.32981
-2.41428 0.768022 7.66146
-2.36481 0.560704 7.59294
-2.38344 0.547132 7.62181
-2.3997 0.435564 7.647
-2.38713 0.162083 7.62752
-2.31754 0.137293 7.5197
-2.26551 0.280121 7.43909
-3.18425 0.0725735 7.02976
-3.24326 0.451762 7.12119
-3.20419 0.488523 7.06066
-3.12923 0.488102 6.94451
-3.19274 0.56094 7.04291
-3.22274 0.701245 7.0894
1.1354 0.327093 6.10794
1.41254 -0.122529 5.67853
1.22813 0.101197 5.96426
1.22073 -0.119125 5.97573
1.31525 0.361769 5.82927
1.31656 -0.416872 5.82724
1.34913 -0.419151 5.77679
1.37815 -0.124667 5.73182
1.30693 0.0433448 5.84216
1.36791 0.1393 5.74768
1.20461 -0.930859 6.0007
1.067 -0.424444 6.21392
1.21072 -0.529496 5.99123
1.16062 -0.458576 6.06886
1.18663 -0.686912 6.02856
1.15853 -1.05219 6.0721
1.16994 -1.10831 6.05442
1.11504 -0.353001 6.13948
1.08682 -1.01101 6.18321
1.15763 -0.716003 6.07349
0.827071 -1.15519 6.04461
0.99003 -1.23278 5.79211
0.996086 -0.935562 5.78273
0.839539 -0.270235 6.02529
0.824711 -0.175998 6.04826
1.00003 -1.09363 5.77662
0.932869 -0.744312 5.88068
0.844962 -0.996646 6.01689
0.800006 0.235472 6.08654
0.797521 -0.711158 6.09039
0.954905 -0.192054 5.84654
1.02948 0.0563983 5.73099
0.903691 0.40545 5.92589
0.995855 -0.175818 5.78309
0.822854 0.352216 6.05114
1.12657 0.0251727 5.58055
1.01929 -0.401178 5.74677
0.943691 -0.050629 5.86391
1.13283 0.0815826 5.57085
1.13654 -0.0455505 5.5651
1.15999 -1.33533 5.92526
0.976652 -1.33533 5.97108
1.01978 0.467858 6.13433
1.11669 0.467858 5.64125
1.34241 0.0598851 5.53426
1.37978 -0.628314 5.55837
1.43525 0.327442 5.59418
1.24135 -0.662206 5.46903
1.28426 -0.943222 5.49672
1.24148 -0.593076 5.46911
0.934245 -0.737824 6.18827
1.0141 0.0246761 6.23981
0.939375 -1.03777 6.19158
0.911729 -0.226996 6.17374
0.839176 -0.372934 6.12692
0.954015 0.145852 6.20103
-4.45011 0.784042 4.48801
-4.77503 0.701035 4.99145
-4.53977 0.690588 4.62694
-4.61686 0.697812 4.74637
-4.6193 0.780872 4.75016
-4.54119 0.781525 4.62913
-4.72903 0.649206 4.92019
-4.54922 0.72427 4.64158
-4.63699 0.788354 4.77758
-4.65131 0.662055 4.79976
-4.48589 0.520589 4.54344
-4.3812 0.63432 4.38124
-4.39828 0.550553 4.4077
-4.50806 0.638095 4.5778
-4.48928 0.512555 4.5487
-4.43518 0.720125 4.46488
-4.53729 0.657923 4.6231
-4.53712 0.642448 4.62283
-4.42672 0.489173 4.45177
-4.44542 0.625696 4.48074
-4.26953 0.497842 4.81214
-4.12951 0.772647 4.59517
-4.18815 0.476561 4.68604
-4.19302 0.612037 4.69359
-4.17872 0.49745 4.67143
-4.20021 0.621612 4.70473
-4.1033 0.688709 4.55458
-4.11839 0.772985 4.57795
-4.25468 0.623451 4.78912
-4.20408 0.584773 4.71073
-4.13908 0.782148 4.61001
-4.47718 0.706617 5.13387
-4.31721 0.826791 4.88601
-4.49609 0.759418 5.16318
-4.31816 0.678392 4.88749
-4.45808 0.683707 5.10428
-4.36014 0.824812 4.95253
-4.19086 0.746101 4.69024
-4.45033 0.663301 5.09227
-4.40521 0.664048 5.02236
-4.50391 0.451536 4.7748
-4.69902 0.451536 4.94237
-4.41683 0.451536 4.61317
-4.56889 0.451536 4.87362
-4.65001 0.451536 5.00434
-4.43137 0.451536 4.46088
-4.37804 0.451536 4.51203
-4.74072 0.451536 5.02052
-4.13417 0.451536 4.45529
-4.28473 0.451536 4.78091
-4.28502 0.451536 4.55754
-4.34596 0.451536 4.56245
-4.18783 0.451536 4.39517
-4.32299 0.451536 4.42457
-4.29557 0.451536 4.722
-4.25429 0.451536 4.40383
-4.57087 0.846312 4.76176
-4.23261 0.846312 4.39793
-4.27484 0.846312 4.43892
-4.26454 0.846312 4.35304
-4.26846 0.846312 4.43812
-4.29332 0.846312 4.34687
-4.34826 0.846312 4.54415
-4.49416 0.846312 4.77429
-4.62479 0.846312 5.06494
-4.41461 0.846312 4.80498
-4.61248 0.846312 4.95577
-4.3028 0.846312 4.84085
-4.37687 0.846312 4.8439
-4.32428 0.846312 4.86236
-4.42856 0.846312 4.79298
-4.37775 0.846312 4.86333
-4.67351 0.682743 5.06509
-4.649 0.675486 5.08091
-4.74929 0.613193 5.01618
-4.56033 0.503214 5.13813
-4.66555 0.598922 5.07022
-4.64358 0.530703 5.08441
-4.29085 0.59149 4.32143
-4.30852 0.664544 4.31003
-4.22251 0.653616 4.36554
-4.1016 0.683181 4.44358
-4.14362 0.747198 4.41646
-4.17091 0.771904 4.39885
-0.90793 0.770117 8.64879
-1.02138 0.477836 8.57557
-0.651868 0.722195 8.81405
-1.12697 0.779665 8.50742
-0.634026 0.602802 8.82557
-0.837288 0.473222 8.69438
-0.961671 0.512908 8.61411
-0.855439 0.449898 8.68267
-1.01665 0.561437 8.57862
-0.834024 0.443111 8.69649
-1.31588 0.435964 8.3855
-1.29776 0.271194 8.39719
-1.38201 0.576214 8.34282
-1.28018 0.161874 8.40854
-1.05385 0.382964 8.55461
-1.27289 0.562474 8.41325
-1.17152 0.160221 8.47867
-1.37211 0.330549 8.34921
-1.20367 0.251224 8.45792
-1.35162 0.300841 8.36244
-1.19834 0.700519 8.04846
-0.826307 0.0909155 8.28857
-1.16224 0.431278 8.07176
-1.13152 0.417408 8.09158
-1.13767 0.673959 8.08761
-0.987606 0.503116 8.18447
-1.15056 0.254896 8.07929
-1.17489 0.410444 8.0636
-1.07418 0.353388 8.12859
-1.1879 0.426055 8.05519
-0.887428 0.55275 8.24912
-0.860855 0.630058 8.26627
-0.454358 0.55147 8.52862
-0.658373 0.447945 8.39695
-0.798251 0.711855 8.30667
-0.541217 0.443564 8.47256
-0.852155 0.745825 8.27189
-0.498141 0.627199 8.50036
-0.647998 0.574854 8.40365
-0.848383 0.715036 8.27432
-0.653738 0.0436172 8.70639
-0.601361 0.0436172 8.64155
-1.16008 0.0436172 8.43773
-0.615898 0.0436172 8.70011
-1.26777 0.0436172 8.23005
-1.19812 0.0436172 8.05105
-1.19699 0.0436172 8.27649
-0.955631 0.0436172 8.25133
-0.969564 0.797545 8.47102
-0.752189 0.797545 8.70335
-1.16306 0.797545 8.37617
-1.14793 0.797545 8.44861
-0.544062 0.797545 8.5941
-0.546439 0.797545 8.70918
-0.693479 0.797545 8.73378
-0.884233 0.797545 8.47108
-0.59663 0.45145 8.7916
-0.532744 0.713915 8.69261
-0.541414 0.638685 8.70605
-0.5022 0.220872 8.64529
-0.440166 0.184093 8.54917
-0.530978 0.199309 8.68988
-1.35461 0.0818265 8.25981
-1.31095 0.246021 8.19218
-1.31945 0.353617 8.20534
-1.25675 0.63297 8.10819
-1.23426 0.734855 8.07334
-1.36516 0.769584 8.27617
-2.90572 -0.47134 7.35371
-3.01219 -0.445808 7.28499
-3.13777 -0.542345 7.20394
-2.80858 -0.754668 7.4164
-3.16149 -0.48865 7.18863
-2.98049 -0.623416 7.30545
-3.03207 -0.593988 7.27216
-3.17108 -0.526466 7.18244
-2.88253 -0.784399 7.36867
-3.09399 -0.91675 7.2322
-3.22475 -1.31437 7.1478
-3.06774 -0.932014 7.24913
-3.26571 -0.890908 7.12136
-3.13274 -1.19049 7.20719
-3.27468 -0.540445 7.11558
-3.22018 -0.838423 7.15075
-3.25077 -0.938768 7.13101
-3.10905 -1.20856 7.22248
-2.73231 -0.834131 6.70374
-2.85748 -1.11219 6.62296
-2.81982 -0.859581 6.64726
-2.95137 -0.85322 6.56236
-2.86026 -0.932938 6.62116
-2.77939 -1.17204 6.67336
-2.8045 -0.822651 6.65715
-2.87176 -0.821323 6.61374
-2.7202 -1.14292 6.71156
-2.49277 -0.839443 6.85834
-2.54883 -0.780978 6.82216
-2.78483 -0.57503 6.66984
-2.65629 -0.631963 6.75281
-2.54703 -0.791487 6.82332
-2.70254 -0.79569 6.72295
-2.86628 -0.533338 6.61728
-2.47929 -0.688212 6.86704
-2.8019 -0.502318 6.65883
-3.1139 -1.33533 7.0965
-3.21304 -1.33533 7.07454
-3.07571 -1.33533 7.24204
-2.857 -1.33533 7.22666
-2.67699 -1.33533 7.19527
-2.72898 -1.33533 7.22873
-3.06442 -1.33533 7.03137
-2.91722 -1.33533 6.8797
-2.98744 -1.33533 6.88961
-3.01687 -1.33533 6.86541
-2.92593 -1.33533 6.87161
-3.22218 -1.33533 7.07496
-3.10482 -0.385794 7.05075
-3.0251 -0.385794 7.03914
-3.15062 -0.385794 7.13267
-3.05864 -0.385794 7.21772
-3.01693 -0.385794 6.90806
-3.20619 -0.385794 7.14963
-2.81873 -0.385794 7.22746
-2.61293 -0.385794 7.05117
-2.81891 -0.385794 6.94778
-2.65492 -0.385794 7.18754
-2.8652 -0.385794 7.01586
-2.83513 -0.385794 7.048
-2.76748 -0.628028 7.37305
-2.71936 -1.10278 7.2985
-2.6789 -0.581695 7.23581
-2.77512 -0.604227 7.3849
-2.63698 -0.782194 7.17086
-2.70507 -0.861487 7.27636
-2.65605 -0.437633 7.2004
-2.71087 -1.04217 7.28535
-2.65258 -0.877463 7.19503
-2.64187 -0.901889 7.17843
-2.61106 -0.881573 7.1307
-2.62749 -1.24739 7.15616
-2.45262 -1.11258 6.88521
-2.66954 -1.02709 7.2213
-2.60668 -1.07436 7.12391
-2.61635 -1.29844 7.13888
-2.59185 -0.900284 7.10092
-2.58186 -1.18075 7.08545
-2.47589 -1.20698 6.92126
-2.51253 -0.940951 6.97803
-3.23314 -0.786224 6.98731
-3.15142 -0.904145 6.8607
-3.23235 -1.21207 6.98609
-3.20695 -0.654172 6.94673
-3.26662 -1.29094 7.03919
-3.17713 -1.22413 6.90052
-3.29359 -1.12442 7.08098
-3.14321 -0.981626 6.84797
-3.21113 -1.26857 6.9532
-3.20838 -1.12335 6.94894
-3.02907 -0.402354 6.67111
-3.05695 -0.482194 6.71432
-2.97314 -0.451364 6.58445
-2.97975 -0.573803 6.5947
-2.97227 -0.661846 6.5831
-3.11603 -0.766592 6.80585
-3.13953 -0.515115 6.84226
-3.12256 -0.669805 6.81597
-3.12952 -0.859933 6.82676
-3.16035 -0.454606 6.87453
-3.0675 -0.810244 4.10672
-3.38333 -0.873628 3.90288
-3.60831 -0.4585 3.75768
-3.33423 -0.812597 3.93457
-3.36238 -0.496057 3.91641
-3.56684 -0.461644 3.78445
-3.06466 -0.783368 4.10855
-3.48171 -0.640517 3.83939
-3.17031 -0.681669 4.04037
-3.41003 -0.745081 3.88565
-3.61788 -1.26806 3.7515
-3.49315 -1.12755 3.832
-3.48511 -0.894149 3.8372
-3.63301 -1.00558 3.74174
-3.64404 -1.31476 3.73462
-3.51478 -1.07837 3.81804
-3.87048 -0.903734 3.58848
-3.67516 -1.33361 3.71453
-3.59819 -1.32722 3.76421
-3.59275 -1.01305 3.76772
-3.54579 -1.06038 3.18555
-3.58443 -0.85183 3.16061
-3.60133 -0.95942 3.1497
-3.47766 -1.17424 3.22952
-3.2202 -1.19218 3.39568
-3.24645 -1.22503 3.37874
-3.58194 -0.57991 3.16222
-3.41162 -1.15669 3.27214
-3.59942 -0.940347 3.15094
-3.50354 -0.662429 3.21281
-2.95609 -0.738486 3.56614
-2.83604 -0.796255 3.64362
-3.08877 -0.741634 3.48051
-2.99139 -0.562315 3.54336
-3.07894 -0.630912 3.48685
-3.09039 -0.707884 3.47946
-2.9043 -0.462487 3.59956
-3.50557 -0.502751 3.2115
-3.16294 -0.443118 3.43264
-3.01671 -0.607879 3.52701
-3.07063 -1.33533 3.91671
-3.04228 -1.33533 3.94171
-3.71615 -1.33533 3.63609
-3.05774 -1.33533 3.97762
-3.24659 -1.33533 3.98729
-3.21368 -1.33533 3.43862
-3.3805 -1.33533 3.49679
-3.38335 -1.33533 3.57546
-3.39754 -1.33533 3.60456
-3.36646 -1.33533 3.46465
-3.84636 -0.419349 3.52008
-3.45146 -0.419349 3.7579
-3.31403 -0.419349 3.92329
-3.73153 -0.419349 3.46556
-3.53644 -0.419349 3.50801
-3.15804 -0.419349 3.65123
-3.0591 -0.419349 3.99591
-3.17747 -0.419349 3.81616
-3.24993 -0.419349 3.74124
-3.26149 -0.419349 3.5605
-3.02764 -0.91063 4.08775
-3.00593 -0.650991 4.0541
-2.97846 -0.759251 4.01155
-2.93711 -0.665785 3.94747
-3.00277 -0.898223 4.04922
-2.80358 -1.28356 3.74059
-2.94343 -1.00151 3.95727
-2.93279 -1.2906 3.94078
-2.80025 -1.11368 3.73542
-2.91531 -0.973305 3.91369
-3.8306 -1.00601 3.49026
-3.75815 -1.09398 3.37801
-3.87783 -0.842529 3.56344
-3.75151 -1.28223 3.36772
-3.74844 -1.31786 3.36296
-3.85211 -0.444855 3.52359
-3.62968 -0.856386 3.17895
-3.81244 -0.548459 3.46212
-3.7223 -0.737658 3.32246
-3.69242 -0.852413 3.27616
-2.27593 -0.903808 2.04924
-2.39029 -0.599924 1.96901
-2.4249 -0.765204 1.94472
-2.29919 -0.866208 2.03292
-2.30102 -0.723534 2.03163
-2.25502 -1.16553 2.06391
-2.18746 -0.960463 2.11131
-2.172 -1.28148 2.12215
-2.1976 -1.12653 2.1042
-2.21391 -0.797023 2.09276
-2.56495 -0.80041 2.74066
-2.52265 -0.524196 2.77033
-2.56265 -0.931548 2.74227
-2.62808 -0.910717 2.69637
-2.51674 -0.86813 2.77448
-2.62119 -0.544895 2.7012
-2.59913 -0.629104 2.71668
-2.83482 -0.636826 2.55132
-2.72441 -0.864398 2.62878
-2.65231 -0.660333 2.67937
-2.57402 -1.33533 2.22654
-2.27927 -1.33533 2.24303
-2.2717 -1.33533 2.21525
-2.51277 -1.33533 2.32704
-2.44198 -1.33533 2.4403
-2.45318 -1.33533 2.59443
-2.34461 -1.33533 2.3789
-2.27864 -1.33533 2.36503
-2.35698 -0.499397 2.01516
-2.40758 -0.499397 2.21114
-2.25841 -0.499397 2.19178
-2.41536 -0.499397 2.0764
-2.71431 -0.499397 2.46912
-2.57118 -0.499397 2.16302
-2.66215 -0.499397 2.37016
-2.46532 -0.499397 2.06045
-2.63834 -0.510092 2.23095
-2.46137 -0.879083 1.97871
-2.60323 -0.509324 2.18091
-2.5677 -0.985946 2.13027
-2.52647 -0.871817 2.07151
-2.55698 -0.866367 2.11499
-2.46943 -0.63747 1.99021
-2.49448 -0.804132 2.02591
-2.57537 -0.716372 2.1412
-2.43668 -0.800824 1.94352
-2.78013 -1.2907 2.43306
-2.78122 -1.15034 2.43461
-2.74755 -1.12304 2.38661
-2.8166 -1.03747 2.48504
-2.72112 -1.30783 2.34895
-2.79852 -0.936874 2.45927
-2.74573 -1.15621 2.38402
-2.69159 -1.20391 2.30686
-2.649 -1.08302 2.24615
-2.83757 -0.953869 2.51493
-2.21903 -0.997757 2.35636
-2.25254 -1.26445 2.40412
-2.10488 -1.25514 2.19367
-2.28855 -1.12927 2.45546
-2.29027 -1.11461 2.4579
-2.30175 -1.20171 2.47427
-2.17326 -1.04684 2.29112
-2.26804 -1.23274 2.42622
-2.20532 -1.28112 2.33683
-2.09455 -0.893021 2.17894
-2.33109 -0.611174 2.51609
-2.46668 -0.532343 2.70935
-2.40576 -0.697688 2.62251
-2.32734 -0.896298 2.51075
-2.252 -0.710431 2.40337
-2.30204 -0.904732 2.47468
-2.25468 -0.790042 2.40718
-2.23238 -0.515655 2.3754
-2.32248 -0.678286 2.50382
-2.28011 -0.569189 2.44343
-1.7092 -0.418123 8.02746
-1.57576 -0.455613 8.11358
-1.8156 -0.459959 7.95878
-1.76153 -0.421733 7.99368
-1.76656 -0.48131 7.99043
-2.03438 -0.521173 7.81759
-1.82906 -0.530471 7.9501
-1.83183 -0.617098 7.94831
-1.95746 -0.56199 7.86723
-1.96374 -0.611796 7.86318
-1.6653 -0.469186 7.54075
-1.7016 -0.449038 7.51732
-1.65824 -0.605212 7.54531
-1.78656 -0.616843 7.46249
-1.75149 -0.535971 7.48512
-1.75428 -0.400668 7.48332
-1.66065 -0.429603 7.54375
-1.73175 -0.414026 7.49786
-1.57455 -0.409095 7.59932
-1.54538 -0.405904 7.61814
-1.88719 -0.620846 7.86147
-1.59623 -0.620846 8.04155
-1.55706 -0.620846 7.88699
-1.82701 -0.620846 7.83705
-1.86614 -0.620846 7.89659
-1.80439 -0.620846 7.8866
-1.71509 -0.620846 7.80316
-1.8251 -0.620846 7.85476
-1.7398 -0.620846 7.96337
-1.8918 -0.620846 7.7218
-1.87155 -0.620846 7.58016
-1.8104 -0.620846 7.55811
-1.81565 -0.620846 7.50849
-1.82799 -0.620846 7.47316
-1.89099 -0.620846 7.78277
-1.74075 -0.620846 7.74847
-1.98912 -0.620846 7.76072
-1.66786 -0.620846 7.66192
-1.69507 -0.620846 7.70363
-1.60046 -0.381564 8.06457
-1.98386 -0.381564 7.73211
-1.94023 -0.381564 7.65502
-1.94764 -0.381564 7.80142
-1.71545 -0.381564 8.00103
-1.63986 -0.381564 7.9523
-1.86262 -0.381564 7.72796
-1.78966 -0.381564 7.91042
-1.94718 -0.381564 7.77502
-1.68675 -0.381564 7.78682
-1.62742 -0.381564 7.82355
-1.53503 -0.381564 7.75976
-1.53593 -0.381564 7.67503
-1.54067 -0.381564 7.80419
-1.59019 -0.381564 8.03496
-1.59099 -0.381564 8.02265
-1.53033 -0.381564 7.86056
-1.48674 -0.381564 7.76505
-1.43212 -0.381564 7.75607
-1.50843 -0.511445 8.03178
-1.45228 -0.467339 7.94478
-1.55989 -0.443646 8.11151
-1.49414 -0.483694 8.00964
-1.35909 -0.599424 7.80039
-1.43976 -0.551939 7.92538
-1.33137 -0.561725 7.75744
-1.48888 -0.568152 8.0015
-1.95014 -0.53193 7.64533
-1.9999 -0.452413 7.72243
-2.02849 -0.558818 7.76672
-2.00173 -0.583624 7.72527
-1.83664 -0.452822 7.46947
-1.93349 -0.386559 7.61953
-1.85331 -0.460291 7.4953
-2.0226 -0.409194 7.7576
0.344012 -0.734936 7.33414
0.288868 -0.676774 7.41958
0.108391 -0.671487 7.69922
0.322432 -0.460392 7.36758
0.117011 -0.556727 7.68586
0.210052 -0.82278 7.5417
0.0582645 -0.62843 7.77689
0.0332839 -0.566949 7.81559
0.204111 -0.721178 7.55091
0.322024 -0.561591 7.36821
0.147888 -1.23096 7.63802
0.0158582 -0.87167 7.84259
0.0614571 -1.23595 7.77194
-0.0185683 -0.890793 7.89594
-0.031906 -0.755257 7.9166
0.0106227 -0.719036 7.85071
0.0851525 -0.922769 7.73523
0.0682847 -0.824197 7.76136
-0.0126731 -1.16498 7.8868
0.00956347 -1.01835 7.85235
-0.441818 -1.26293 7.35785
-0.550106 -0.91759 7.52563
-0.434534 -0.814206 7.34656
-0.55434 -1.1158 7.53219
-0.576354 -0.482737 7.5663
-0.43987 -1.254 7.35483
-0.392398 -0.974033 7.28127
-0.499575 -0.987456 7.44734
-0.46019 -0.720477 7.38631
-0.54512 -0.883199 7.51791
-0.326458 -0.849253 7.1791
-0.361134 -0.78413 7.23283
-0.225821 -0.853898 7.02317
-0.421889 -0.703704 7.32697
-0.390803 -0.586449 7.2788
-0.311349 -0.78081 7.15569
-0.558952 -0.448837 7.53934
-0.226383 -0.458107 7.02404
-0.509035 -0.386732 7.46199
-0.296792 -0.760514 7.13314
-0.0346453 -1.33533 7.34687
-0.077618 -1.33533 7.73061
-0.0150595 -1.33533 7.36728
0.000180294 -1.33533 7.41232
-0.0430229 -1.33533 7.82047
-0.00555654 -1.33533 7.81647
-0.168243 -1.33533 7.43694
-0.474346 -1.33533 7.4854
-0.334173 -1.33533 7.73845
-0.240868 -1.33533 7.58519
-0.372926 -1.33533 7.54141
-0.328263 -1.33533 7.61856
0.15755 -0.381564 7.4822
0.0116313 -0.381564 7.41818
0.173836 -0.381564 7.54569
-0.143588 -0.381564 7.78115
-0.0403978 -0.381564 7.78164
-0.0602755 -0.381564 7.65995
0.167302 -0.381564 7.30371
-0.187035 -0.381564 7.34906
-0.159191 -0.381564 7.16994
-0.19069 -0.381564 7.26905
-0.0159847 -0.381564 7.31821
-0.172826 -0.381564 7.2224
0.193537 -1.00286 7.21822
0.336123 -0.803127 7.31025
0.276976 -1.05168 7.27207
0.349686 -0.711475 7.319
0.331853 -0.385667 7.30749
0.144686 -0.594523 7.18669
0.161757 -0.53047 7.19771
0.264219 -0.517753 7.26384
-0.0929194 -1.08205 7.03334
-0.137001 -0.916162 7.00489
0.184368 -1.18625 7.2123
-0.131485 -0.931279 7.00845
0.170497 -1.04576 7.20335
-0.111009 -1.23938 7.02167
0.15793 -1.03626 7.19524
-0.0337273 -0.907215 7.07155
-0.233854 -0.958262 7.81846
-0.160049 -0.586491 7.86609
-0.128134 -1.31309 7.88669
-0.202943 -0.699332 7.83841
-0.258358 -1.24874 7.80265
-0.185575 -0.79448 7.84962
-0.068184 -0.621698 7.92538
-0.281913 -1.14591 7.78744
-0.344353 -0.829083 7.74715
-0.49971 -0.787221 7.64688
-0.472589 -0.777916 7.66438
-0.176402 -0.387417 7.85554
-0.172473 -0.492273 7.85808
-0.497238 -0.8284 7.64847
-0.356375 -0.850236 7.73939
-0.514953 -0.393542 7.63704
2.32144 -0.871319 2.58572
2.09327 -0.855448 2.43845
1.77253 -0.736367 2.23145
1.89016 -0.827399 2.30737
2.19033 -0.863138 2.5011
1.65032 -0.606265 2.15258
2.05535 -0.61769 2.41398
1.63301 -0.601702 2.14141
1.73908 -0.60443 2.20987
1.91219 -1.12839 2.32159
1.9312 -0.971991 2.33385
1.67218 -0.735201 2.16669
1.8237 -1.04257 2.26447
1.70669 -0.879975 2.18896
1.87891 -0.871228 2.30011
1.94453 -0.987103 2.34246
1.72434 -0.980173 2.20035
1.97502 -1.09572 2.36214
2.23433 -1.18451 1.54358
2.2537 -1.04074 1.55608
2.12353 -0.790409 1.47208
2.07815 -0.954579 1.44279
2.32825 -1.27853 1.6042
2.3005 -0.880453 1.58629
2.43376 -1.29267 1.67229
2.32804 -0.980216 1.60406
2.38473 -1.31313 1.64065
2.34857 -0.84957 1.61732
2.36439 -0.820146 1.62753
2.41213 -0.882554 1.65834
2.33186 -0.841558 1.60653
2.28385 -0.692243 1.57555
2.68442 -0.838439 1.83407
2.53224 -0.830322 1.73586
2.55841 -0.79207 1.75275
2.62491 -0.764892 1.79567
2.14993 -1.33533 2.17543
2.19015 -1.33533 2.38022
2.40855 -1.33533 2.28165
2.19564 -1.33533 2.43276
2.21466 -1.33533 2.08008
2.45747 -1.33533 2.32614
2.1571 -1.33533 2.3704
2.34205 -1.33533 2.1314
2.56328 -1.33533 2.34128
2.4256 -1.33533 2.19187
2.25615 -1.33533 1.8889
2.28636 -1.33533 1.70592
2.32907 -1.33533 1.74509
2.23361 -1.33533 1.79763
2.0948 -1.33533 1.50981
2.09568 -1.33533 1.8053
2.0596 -1.33533 1.71767
2.14973 -1.33533 1.84102
2.29288 -1.33533 1.64649
1.76635 -1.33533 2.06154
2.19444 -0.564744 2.13672
1.94452 -0.564744 2.33031
1.99588 -0.564744 2.23364
2.22285 -0.564744 2.21994
2.12479 -0.564744 2.28647
1.95956 -0.564744 1.97101
1.76138 -0.564744 1.94702
1.70111 -0.564744 1.96662
2.27149 -0.564744 2.27658
2.02214 -0.564744 2.02015
2.29055 -0.564744 1.95773
2.36166 -0.564744 2.23454
2.52244 -0.564744 1.87754
2.35633 -0.564744 2.28019
2.36928 -0.564744 1.84723
2.35749 -0.564744 2.08702
2.26374 -0.564744 2.17601
2.29681 -0.564744 2.03088
2.53698 -0.564744 1.87824
2.37906 -0.564744 1.83791
2.53211 -0.740159 2.40535
2.40393 -0.649278 2.60395
2.45313 -0.61026 2.52772
2.59558 -0.79507 2.30701
2.59318 -0.696179 2.31073
2.60731 -0.694765 2.28884
2.46581 -0.712192 2.50808
2.3891 -1.31836 2.62693
2.77511 -1.092 2.02884
2.82047 -0.974245 1.95855
2.50889 -1.31701 2.44133
2.45286 -1.26669 2.52815
2.81796 -1.09107 1.96245
2.69069 -1.00195 2.15964
2.55386 -1.30467 2.37166
2.70695 -1.18458 2.13445
1.61853 -0.882012 2.07718
1.78095 -1.01106 1.82551
1.7404 -1.1344 1.88834
1.71314 -1.16099 1.93058
1.65948 -0.685563 2.01372
1.80705 -1.02949 1.78508
1.69096 -0.735019 1.96494
1.67528 -1.31732 1.98924
1.8535 -0.943346 1.7131
1.87949 -0.62459 1.67283
1.71022 -0.666511 1.93511
1.70792 -0.692222 1.93867
1.99793 -0.752258 1.48932
1.95345 -0.661955 1.55823
1.89087 -0.590045 1.6552
1.94842 -0.705264 1.56603
0.101816 -0.470685 0.780031
1.64625 -0.382576 -1.61297
0.0984777 -0.751797 0.785204
0.500103 -0.762693 0.162913
0.941084 -0.724228 -0.520358
1.45533 -0.399599 -1.31714
1.25036 -0.255871 -0.999566
1.64456 -0.324811 -1.61034
1.22551 -0.292878 -0.96106
1.54652 -0.898589 -1.45844
1.59784 -0.541883 -1.53796
1.20827 -1.21304 -0.934341
1.66788 -1.25138 -1.64647
1.03731 -0.885488 -0.669458
1.83817 -0.814019 -1.91033
1.45652 -0.73533 -1.31899
1.29169 -0.846874 -1.0636
1.33557 -1.18863 -1.13159
2.50035 -1.15747 -0.866431
2.4554 -0.816993 -0.796795
2.2889 -1.31837 -0.538807
2.40529 -1.25416 -0.719142
2.86968 -0.513163 -1.43869
2.08453 -0.738021 -0.222149
2.18254 -0.68869 -0.374021
2.598 -1.07938 -1.01775
2.42938 -0.539674 -0.756481
1.89757 -0.319364 0.0675204
1.07868 -0.355535 1.33635
1.95853 -0.660632 -0.0269318
1.12813 -0.789604 1.25972
1.52049 -0.486706 0.651784
1.66273 -0.60355 0.431397
1.45879 -0.499414 0.747384
2.10733 -0.64613 -0.257474
1.32192 -0.628019 0.959457
1.48034 -1.33533 -0.418137
1.11219 -1.33533 0.135643
0.432 -1.33533 0.676599
1.78476 -1.33533 -1.64214
0.351165 -1.33533 0.663141
1.84408 -1.33533 -1.86195
0.515769 -1.33533 0.362303
0.768951 -1.33533 0.0259113
1.52099 -1.33533 -0.848677
1.30208 -1.33533 -1.07636
2.27538 -1.33533 -1.74386
2.15583 -1.33533 -1.0834
2.2727 -1.33533 -0.699358
2.25167 -1.33533 -1.32169
1.84359 -1.33533 -0.475645
1.93976 -1.33533 -1.35642
2.51722 -1.33533 -0.904062
1.84369 -1.33533 -0.400944
2.06849 -1.33533 -1.64103
2.4566 -1.33533 -1.44908
2.05023 -0.250606 -1.3256
0.999928 -0.250606 -0.0174657
0.907457 -0.250606 -0.357693
1.78586 -0.250606 -1.67153
1.77784 -0.250606 -1.5392
1.86223 -0.250606 -1.13929
1.7308 -0.250606 -0.774335
0.877 -0.250606 -0.170929
1.48619 -0.250606 -0.72238
1.50988 -0.250606 -0.54351
1.08115 -0.250606 0.302496
0.582734 -0.250606 0.724123
1.31072 -0.250606 0.572216
1.47097 -0.250606 0.438987
1.47646 -0.250606 -0.165485
0.850724 -0.250606 0.433289
1.58181 -0.250606 -0.148599
1.16491 -0.250606 0.691743
0.741723 -0.250606 1.28756
1.19241 -0.250606 0.923065
0.48754 -0.600895 1.18691
0.122202 -0.298364 0.951122
0.367651 -0.455426 1.10953
0.971781 -0.874789 1.49944
0.672187 -0.920358 1.30608
0.578478 -0.884962 1.2456
2.36577 -1.25036 -1.76914
2.27183 -0.760517 -1.82977
2.15089 -1.17858 -1.90783
2.30519 -0.556568 -1.80824
2.31186 -0.652129 -1.80393
2.64368 -0.750829 -1.58978
3.79939 -0.404839 -0.843887
3.06296 -0.377698 -1.31918
3.36758 -0.665726 -1.12258
3.34314 -0.66709 -1.13835
3.83416 -0.383952 -0.821448
3.50335 -0.364575 -1.03495
3.05578 -0.431662 -1.32381
3.02054 -0.332807 -1.34655
3.21092 -0.773987 -1.22368
3.79961 -0.57752 -0.843749
3.66919 -0.882243 -0.927916
3.86313 -0.862895 -0.80275
3.5807 -1.20251 -0.985033
3.62219 -1.30442 -0.958252
4.08346 -0.44232 -0.660547
4.0989 -0.799261 -0.650586
4.09346 -0.860284 -0.654093
3.73659 -0.625117 -0.884416
3.09965 -0.740871 0.0753033
3.0137 -0.893858 0.0198287
3.23934 -1.1641 0.165457
3.0191 -0.878986 0.0233145
3.21671 -1.30015 0.150854
3.07132 -1.17261 0.0570216
3.45041 -0.575039 0.301685
3.03463 -1.19089 0.0333429
3.14795 -1.01443 0.106478
2.66476 -0.744325 -0.205375
2.79366 -0.632872 -0.122181
2.60428 -0.757694 -0.244408
2.90994 -0.543893 -0.0471373
2.64609 -0.400206 -0.217425
3.10579 -0.279883 0.079267
3.1686 -0.438112 0.119805
2.44918 -0.342297 -0.344509
3.14488 -0.358038 0.104495
3.31706 -1.33533 -0.694018
2.73961 -1.33533 -1.1755
3.2024 -1.33533 -0.624462
2.92139 -1.33533 -1.35524
3.61161 -1.33533 -0.611531
2.66026 -1.33533 -0.944582
3.67626 -1.33533 -0.846503
2.89812 -1.33533 -0.787441
3.60491 -1.33533 -0.592959
2.78392 -1.33533 -1.32228
3.50206 -1.33533 0.0421444
3.29185 -1.33533 -0.404383
3.37814 -1.33533 -0.15808
3.79229 -1.33533 -0.418104
3.4899 -1.33533 -0.461062
3.54691 -1.33533 -0.532318
4.08707 -1.33533 -0.588653
3.67387 -1.33533 -0.0305571
4.06772 -1.33533 -0.576365
3.27231 -1.33533 -0.304087
3.06277 -0.250606 -0.912928
3.49448 -0.250606 -1.01933
3.44988 -0.250606 -0.525194
3.79328 -0.250606 -0.667668
3.78208 -0.250606 -0.33225
3.12141 -0.250606 -1.05867
3.31398 -0.250606 -0.51956
3.44133 -0.250606 -0.708328
3.80351 -0.250606 -0.545882
3.48171 -0.250606 -0.757315
2.90317 -0.250606 -0.276954
2.78903 -0.250606 -0.921544
2.99673 -0.250606 -1.04696
2.79764 -0.250606 -0.231304
2.66477 -0.250606 -0.904342
2.79853 -0.250606 -0.743162
2.77936 -0.250606 -0.944525
2.59781 -0.250606 -0.506527
2.52559 -0.250606 -0.65284
2.86606 -0.250606 -0.149567
2.80306 -0.752494 -1.38774
2.84091 -0.488398 -1.4464
2.69108 -0.695954 -1.21424
2.84712 -0.420699 -1.45602
2.71043 -0.518084 -1.24422
2.55551 -0.666014 -1.00419
2.34351 -1.04335 -0.675706
2.34632 -0.964185 -0.680057
2.36282 -0.953812 -0.705625
2.71288 -1.30972 -1.24802
2.27844 -0.999458 -0.57488
2.31328 -1.02835 -0.628866
4.0335 -1.10777 -0.426302
3.88484 -0.866894 -0.195974
3.89895 -0.887716 -0.217833
4.08736 -0.502357 -0.509764
3.88731 -0.916391 -0.199797
4.05185 -0.775206 -0.454742
3.81749 -0.397554 -0.0916197
4.09486 -0.350525 -0.521375
3.83293 -0.786619 -0.115533
3.73586 -0.627304 0.0348736
3.60137 -0.589744 0.243244
3.54314 -0.276156 0.333472
2.42009 -0.751964 4.11739
2.57251 -0.602362 3.88124
1.74856 -0.504411 5.15788
2.67633 -0.626317 3.72038
2.10118 -0.530063 4.61152
2.15704 -0.761178 4.52498
2.64681 -0.794729 3.76611
1.88088 -0.613141 4.95287
1.97327 -0.504863 4.80971
2.55285 -0.755893 3.9117
2.1576 -1.03231 4.52411
1.98848 -0.827137 4.78615
1.98811 -1.1121 4.78672
2.13396 -0.911167 4.56073
2.00947 -0.823415 4.75363
1.9159 -1.03088 4.89861
2.07121 -0.945776 4.65797
1.80651 -0.61315 5.0681
2.02425 -1.3271 4.73072
1.69357 -0.8772 5.2431
1.05244 -0.939953 4.64996
1.37129 -0.86288 4.15593
1.30376 -1.02913 4.26056
1.31877 -1.32707 4.2373
1.14178 -0.735563 4.51153
1.3304 -1.00571 4.21928
0.960275 -0.64047 4.79277
1.03417 -1.32985 4.67826
1.42102 -1.08944 4.07887
1.0289 -1.11938 4.68644
1.50165 -0.510503 3.95393
1.73116 -0.582401 3.59832
1.84076 -0.838943 3.42851
1.9577 -0.636525 3.24733
1.69781 -0.72854 3.65
1.89351 -0.606194 3.34677
1.84893 -0.537894 3.41585
1.5956 -0.697537 3.80838
1.60126 -0.817941 3.7996
1.77237 -0.517698 3.53447
2.43249 -1.33533 3.60473
2.17073 -1.33533 4.11796
1.79498 -1.33533 4.99344
2.24605 -1.33533 4.07474
1.97555 -1.33533 4.3831
1.91624 -1.33533 4.87929
2.00804 -1.33533 4.11381
2.3535 -1.33533 3.87897
2.23397 -1.33533 4.2452
1.35224 -1.33533 4.91291
1.46665 -1.33533 5.15381
1.14022 -1.33533 4.56899
1.63943 -1.33533 4.397
1.64192 -1.33533 5.08398
1.61049 -1.33533 4.56972
1.24507 -1.33533 4.86269
1.09557 -1.33533 4.58476
1.09226 -1.33533 4.845
1.43465 -0.458787 4.8593
1.84792 -0.458787 4.88444
1.48694 -0.458787 4.90669
2.02733 -0.458787 4.34166
2.31414 -0.458787 4.00093
1.71281 -0.458787 4.99033
1.54829 -0.458787 4.914
2.23086 -0.458787 4.18034
1.80775 -0.458787 4.7423
2.47676 -0.458787 3.73302
1.89677 -0.458787 3.84235
1.76219 -0.458787 3.97023
1.65715 -0.458787 4.09353
2.55474 -0.458787 3.60534
2.3477 -0.458787 3.6313
1.79797 -0.458787 4.18222
1.99576 -0.458787 3.546
1.77169 -0.458787 4.00017
2.53696 -0.83117 3.58843
2.45007 -0.877935 3.53235
2.60354 -1.17003 3.6314
2.44652 -0.619905 3.53006
2.19855 -1.15685 3.37002
2.51825 -1.2271 3.57635
2.507 -1.14581 3.5691
2.24077 -0.921361 3.39727
1.33934 -0.939627 5.1238
1.42956 -1.05514 5.18203
1.2981 -1.2083 5.09718
1.35301 -1.01021 5.13262
1.22181 -0.793812 5.04794
1.37604 -0.527167 5.14748
1.23709 -0.524607 5.0578
1.15153 -0.697803 5.00259
1.33043 -0.971823 2.75482
1.51609 -0.90869 2.87464
1.26884 -0.713601 2.71507
1.65422 -0.76313 2.96379
1.55859 -0.75542 2.90207
1.49457 -0.968926 2.86076
1.35437 -0.861471 2.77027
1.28894 -0.866444 2.72804
1.65006 -0.821402 2.96111
1.50668 -1.25166 2.86857
1.62676 -1.0992 2.94607
1.53795 -1.02192 2.88875
1.55891 -1.14129 2.90228
1.58773 -1.28014 2.92088
1.51879 -0.994501 2.87639
1.64485 -1.14948 2.95775
1.19401 -1.25815 3.45617
1.1986 -1.20582 3.45913
1.36727 -1.0669 3.56799
1.32709 -1.24447 3.54206
1.35022 -0.757345 3.55699
1.24748 -0.967206 3.49068
1.34446 -1.31199 3.55327
1.29356 -0.876463 3.52042
0.895323 -0.732858 3.2634
0.949983 -0.883539 3.29867
0.881403 -0.857222 3.25441
1.0267 -0.816941 3.34819
1.10352 -0.985571 3.39777
1.08387 -0.854687 3.38509
0.900397 -0.814739 3.26667
0.960254 -0.773808 3.3053
1.21325 -1.33533 3.04825
1.29788 -1.33533 2.88594
1.1088 -1.33533 2.99663
1.15304 -1.33533 2.96618
1.37184 -1.33533 3.09351
1.48306 -1.33533 2.90759
1.17122 -1.33533 3.03101
1.19226 -1.33533 2.94206
1.45244 -1.33533 2.89027
1.66382 -1.33533 3.10573
1.32658 -1.33533 3.42956
1.3037 -1.33533 3.20411
1.36522 -1.33533 3.3443
1.23271 -1.33533 3.36707
1.58401 -1.33533 3.20338
1.27078 -1.33533 3.46828
1.24883 -1.33533 3.32999
1.51911 -1.33533 3.20941
1.51228 -0.708467 3.099
1.36576 -0.708467 2.8342
1.59749 -0.708467 3.00835
1.42072 -0.708467 2.97241
1.56057 -0.708467 3.24484
1.38125 -0.708467 2.9437
1.58136 -0.708467 2.95757
1.60943 -0.708467 3.08868
1.41918 -0.708467 2.81219
1.23888 -0.708467 3.11721
1.1899 -0.708467 3.08913
1.13093 -0.708467 2.9884
1.09612 -0.708467 2.93822
1.08101 -0.708467 3.32182
1.04609 -0.708467 3.31939
1.18543 -0.708467 3.11274
0.972084 -0.708467 3.29179
1.08542 -0.708467 3.0364
1.17875 -0.813797 2.79147
1.12446 -0.860243 2.8756
1.10063 -0.898454 2.91252
1.08331 -0.87302 2.93936
1.06561 -0.867464 2.96679
1.21558 -1.0662 2.7344
1.18941 -0.899863 2.77496
1.22873 -1.03934 2.71404
1.13605 -0.92553 2.85764
1.22359 -0.752722 2.722
1.03101 -1.20026 3.02039
1.0791 -1.26748 2.94588
0.978879 -1.31182 3.10116
1.05186 -1.08632 2.98808
1.11675 -1.2361 2.88754
0.893781 -1.03583 3.23302
1.1197 -1.17093 2.88297
0.934583 -1.17423 3.1698
0.908975 -1.11054 3.20948
0.893528 -1.02793 3.23341
1.59793 -1.21658 3.23415
1.62266 -1.13354 3.19582
1.65672 -0.998282 3.14305
1.58704 -1.31553 3.25101
1.73563 -0.806893 3.02078
1.73112 -1.22266 3.02777
1.56852 -1.08882 3.27971
1.72744 -1.21782 3.03348
1.63318 -0.900921 3.17953
1.63548 -1.10682 3.17596
1.3967 -0.931185 3.54593
1.43865 -0.776835 3.48093
1.39487 -0.88145 3.54877
1.45562 -0.97901 3.45463
1.66717 -0.749421 3.12686
1.48114 -0.939725 3.4151
1.38324 -0.875251 3.56678
1.62456 -0.755169 3.19288
1.51513 -0.988773 3.36244
1.63108 -0.761582 3.18278
0.407489 -0.878761 3.10656
0.516233 -0.890885 2.93794
0.320202 -0.722841 3.24191
0.314726 -0.954933 3.2504
0.446988 -0.723335 3.04531
0.551865 -0.802693 2.88269
0.379292 -0.80382 3.15028
0.38471 -0.931291 3.14188
0.47473 -1.23208 3.0023
0.566193 -1.02943 2.86048
0.473655 -1.15783 3.00396
0.528674 -1.28711 2.91865
0.503696 -1.32099 2.95738
0.497341 -1.28952 2.96724
0.529702 -1.25561 2.91706
0.628836 -0.909645 2.76334
1.06022 -1.29731 3.31819
1.0705 -1.18588 3.30225
1.17332 -1.12442 3.14283
1.13501 -0.898168 3.20223
1.15756 -1.22815 3.16726
1.04896 -1.25174 3.33566
1.05317 -0.990071 3.32914
1.07174 -1.26837 3.30035
0.920107 -0.924289 3.53546
0.963408 -0.88636 3.46832
0.91822 -0.829394 3.53838
1.0681 -0.938682 3.30599
0.946942 -1.00473 3.49385
0.86971 -0.80262 3.6136
1.06548 -0.750561 3.31005
1.09644 -0.816445 3.26203
0.55243 -1.33533 3.21775
0.558653 -1.33533 3.06448
0.604298 -1.33533 2.80786
0.61901 -1.33533 3.11198
0.708654 -1.33533 3.24398
0.637386 -1.33533 3.00636
0.527902 -1.33533 3.33976
0.45569 -1.33533 3.19676
0.667379 -1.33533 2.89339
0.951883 -1.33533 3.12052
0.859274 -1.33533 3.12479
0.85428 -1.33533 3.00874
0.779517 -1.33533 2.91342
0.849169 -1.33533 3.13919
0.982921 -1.33533 3.10872
0.891702 -1.33533 2.93796
1.11023 -1.33533 3.23305
1.04121 -1.33533 3.10002
0.69776 -0.708467 3.10515
0.784552 -0.708467 3.02456
0.669574 -0.708467 3.13146
0.535022 -0.708467 3.17143
0.762036 -0.708467 3.0321
0.461751 -0.708467 3.20671
0.557816 -0.708467 2.9955
0.644331 -0.708467 3.16624
0.682883 -0.708467 2.81679
0.440615 -0.708467 3.25594
0.585717 -0.708467 3.32298
0.777426 -0.708467 3.474
0.526149 -0.708467 3.25224
0.837006 -0.708467 3.2515
0.459919 -0.708467 3.2791
0.735653 -0.708467 3.28377
0.957364 -0.708467 3.44257
0.322742 -0.708467 3.26096
0.360331 -0.80195 3.28985
0.49895 -0.9661 3.37925
0.357013 -1.19426 3.28771
0.540649 -0.855363 3.40614
0.434664 -0.899856 3.33779
0.428958 -0.810811 3.33411
0.485112 -0.753174 3.37032
0.395876 -0.971541 3.31277
0.523337 -0.993612 3.39497
0.563282 -1.04284 3.42074
0.568746 -1.30972 3.42426
0.471281 -1.27566 3.3614
0.495329 -1.25428 3.37691
0.602555 -1.04337 3.44606
0.669576 -1.06582 3.48929
0.798201 -1.20633 3.57224
0.578792 -1.16585 3.43074
0.754239 -1.03673 3.54389
0.454215 -1.24606 3.3504
0.811739 -1.08975 3.58097
0.877342 -1.20946 2.91856
0.858514 -1.26235 2.90642
0.768494 -0.952118 2.84836
0.640751 -0.914394 2.76598
0.792598 -0.979164 2.86391
0.885649 -1.12956 2.92392
0.668632 -1.3297 2.78396
0.883643 -1.20542 2.92262
0.811103 -1.28936 2.87584
0.664561 -0.982477 2.78133
0.724233 -0.778179 2.81982
0.899401 -0.940586 2.93278
1.05291 -0.769682 3.03178
0.741371 -0.787384 2.83087
0.917786 -1.00415 2.94464
0.741742 -0.777193 2.83111
0.873475 -0.858872 2.91606
0.959665 -0.752157 2.97165
1.05296 -0.941356 3.03182
1.15532 -0.800257 3.09783
-0.0120764 -0.801528 3.75658
-0.0278848 -0.782904 3.78107
-0.156932 -0.982941 3.98102
-0.00400935 -0.765571 3.74408
-0.0928683 -0.894543 3.88176
-0.0404727 -0.85245 3.80057
-0.107143 -0.767042 3.90388
-0.086382 -1.00241 3.87171
0.0552524 -1.20875 3.65226
0.0118736 -1.22889 3.71947
0.00350226 -1.09341 3.73244
0.0211984 -1.17074 3.70502
0.0353802 -0.961354 3.68305
0.0792027 -0.992042 3.61515
0.0794452 -0.970247 3.61477
0.0139986 -1.05542 3.71618
0.590251 -0.946222 4.04642
0.582325 -1.28166 4.0587
0.611196 -0.938004 4.01397
0.617863 -0.932726 4.00364
0.693245 -1.31409 3.88684
0.569239 -1.12201 4.07898
0.69279 -1.00701 3.88755
0.639537 -0.995613 3.97006
0.524957 -0.769824 4.14759
0.614582 -0.818496 4.00872
0.435924 -0.882119 4.28554
0.485062 -1.00246 4.20941
0.560539 -0.904632 4.09246
0.569765 -0.956113 4.07817
0.501747 -0.859832 4.18355
0.520387 -1.02144 4.15467
0.108774 -1.33533 4.06661
0.205701 -1.33533 3.87857
0.123689 -1.33533 3.55389
0.173082 -1.33533 4.02379
0.0913764 -1.33533 4.05396
-0.0897285 -1.33533 4.01633
0.180963 -1.33533 3.98248
0.128089 -1.33533 3.76153
0.184269 -1.33533 3.76589
0.236779 -1.33533 3.74464
0.215696 -1.33533 3.69154
0.433214 -1.33533 3.76876
0.606393 -1.33533 3.84461
0.288481 -1.33533 3.68648
0.385899 -1.33533 3.77887
0.383294 -1.33533 3.89028
0.266724 -1.33533 3.92966
0.464096 -1.33533 3.92862
0.188032 -0.708467 3.87885
-0.0057658 -0.708467 3.93682
0.285701 -0.708467 3.65365
0.134447 -0.708467 3.60823
-0.169202 -0.708467 4.00169
0.204696 -0.708467 3.87557
0.1596 -0.708467 3.76229
0.120218 -0.708467 3.82799
0.273645 -0.708467 3.92162
0.0899979 -0.708467 4.01278
0.3459 -0.708467 4.17046
-0.0799116 -0.708467 4.05517
0.472142 -0.708467 4.13092
0.310837 -0.708467 4.27454
0.0422535 -0.708467 4.1239
0.280271 -0.708467 3.96522
0.160617 -0.708467 3.95709
0.35984 -0.708467 4.16888
0.0433899 -0.946444 4.14977
-0.0808441 -0.974529 4.06959
0.0529613 -0.944277 4.15595
-0.0434251 -1.14478 4.09374
-0.0610575 -0.721308 4.08236
-0.0849005 -0.833318 4.06698
-0.142375 -1.14967 4.02988
-0.0132919 -0.756679 4.11319
-0.0345502 -0.832549 4.09947
0.0678277 -0.910031 4.16555
0.157624 -1.26951 4.2235
0.168142 -1.247 4.23029
0.0542411 -1.09739 4.15678
0.262923 -1.09395 4.29146
-0.0850165 -1.31756 4.0669
0.195432 -1.1783 4.2479
0.277171 -1.3251 4.30066
0.142226 -1.14562 4.21356
0.0358731 -1.10427 4.14492
0.310768 -1.32002 4.32234
0.370464 -1.31794 3.65599
0.272047 -1.26951 3.59248
0.373508 -1.10269 3.65796
0.163758 -1.22531 3.52259
0.166895 -0.771395 3.52461
0.251255 -0.839818 3.57906
0.181233 -0.803632 3.53386
0.16019 -0.927612 3.52028
0.17245 -1.26971 3.5282
0.349703 -1.28312 3.64259
0.655154 -0.894474 3.83973
0.404447 -0.718609 3.67793
0.331063 -0.856804 3.63056
0.376176 -0.937219 3.65968
0.340855 -0.911339 3.63688
0.436601 -0.75689 3.69868
0.432877 -0.923663 3.69627
0.605318 -0.904539 3.80757
0.587097 -1.0216 3.79581
0.556411 -0.906489 3.776
-1.10902 -0.483203 3.96134
-0.968206 -0.676756 4.00207
-0.951052 -0.685267 4.00704
-1.00899 -0.699164 3.99028
-0.970878 -0.637972 4.0013
-0.723933 -0.0960121 4.07274
-1.16716 -0.490165 3.94452
-1.15354 -0.0751992 3.94846
-1.16218 -0.388698 3.94596
-0.854067 -1.19308 4.03509
-0.850862 -0.824149 4.03602
-0.674473 -0.924832 4.08705
-0.775919 -0.633599 4.0577
-0.879396 -1.24503 4.02777
-0.898627 -1.01092 4.0222
-0.741769 -0.695964 4.06758
-0.874373 -0.825504 4.02922
-0.773733 -0.987107 4.05833
-0.981153 -1.30037 4.61185
-0.920229 -0.592476 4.62947
-0.901733 -0.790333 4.63483
-1.02413 -1.30333 4.59942
-1.0058 -0.891544 4.60472
-0.963071 -1.01237 4.61708
-0.982394 -1.08694 4.61149
-0.894769 -1.03006 4.63684
-0.975632 -0.670752 4.61345
-1.33717 -0.67139 4.50886
-1.14217 -0.55254 4.56527
-1.25967 -0.565619 4.53128
-0.962327 -0.263521 4.6173
-1.17099 -0.345951 4.55693
-1.22409 -0.683093 4.54157
-0.908926 -0.24856 4.63274
-1.09607 -0.414229 4.57861
-1.1128 -0.296363 4.57376
-1.03151 -1.33533 4.16778
-1.0316 -1.33533 4.25694
-0.982775 -1.33533 4.2651
-1.22056 -1.33533 4.12487
-0.847127 -1.33533 4.54704
-0.937904 -1.33533 4.53589
-0.797065 -1.33533 4.34651
-0.742565 -1.33533 4.34212
-0.915273 -0.0716091 4.24259
-0.722654 -0.0716091 4.25389
-1.10004 -0.0716091 4.01876
-0.896728 -0.0716091 4.32318
-1.27133 -0.0716091 4.32518
-1.06607 -0.0716091 4.50962
-1.21296 -0.0716091 4.23931
-1.16641 -0.0716091 4.00947
-1.20731 -0.361535 4.04428
-1.1876 -1.1172 3.97613
-1.20795 -0.362257 4.04648
-1.1894 -0.44769 3.98236
-1.25847 -0.19414 4.22113
-1.18397 -1.14286 3.96359
-1.20618 -0.865156 4.04036
-1.19494 -0.764136 4.00152
-1.21214 -0.348581 4.06095
-1.19764 -1.03602 4.01083
-1.28047 -1.29366 4.29715
-1.27419 -1.10625 4.27546
-1.28244 -1.03344 4.30398
-1.26189 -1.22816 4.23294
-1.2808 -1.27806 4.29831
-1.27847 -0.835537 4.29025
-1.25089 -1.28789 4.1949
-1.2943 -0.809677 4.34497
-1.22753 -1.04566 4.11417
-1.33891 -1.21718 4.49918
-0.685883 -1.23686 4.16582
-0.744503 -0.930849 4.36846
-0.665687 -1.16211 4.09601
-0.669602 -1.11906 4.10954
