ply
format ascii 1.0
comment Created by Open3D
element vertex 1900
property double x
property double y
property double z
end_header
6.27448 5.79199 -7.41724
6.22958 5.77784 -7.35544
6.18467 5.7637 -7.29363
6.13977 5.74955 -7.23183
6.09486 5.7354 -7.17002
6.04996 5.72126 -7.10822
6.00506 5.70711 -7.04641
5.96015 5.69296 -6.98461
5.91525 5.67882 -6.9228
5.87034 5.66467 -6.861
5.82544 5.65052 -6.79919
5.78053 5.63638 -6.73739
5.73563 5.62223 -6.67558
5.69073 5.60808 -6.61378
5.64582 5.59394 -6.55197
5.60092 5.57979 -6.49017
5.55601 5.56564 -6.42836
5.51111 5.5515 -6.36656
5.46621 5.53735 -6.30475
5.4213 5.5232 -6.24295
5.3764 5.50906 -6.18114
10.1856 5.49491 -2.59263
2.09543 5.49491 -8.47047
5.33149 5.49491 -6.11933
11.7338 5.78247 -4.7236
3.64367 5.78247 -10.6014
6.87973 5.78247 -8.2503
11.7432 5.76605 -4.73651
3.65305 5.76605 -10.6143
6.88911 5.76605 -8.26321
12.1612 5.89773 -5.31177
12.1142 5.88295 -5.24721
12.0673 5.86817 -5.18265
12.0204 5.85339 -5.11809
11.9735 5.83862 -5.05352
11.9266 5.82384 -4.98896
11.8797 5.80906 -4.9244
11.8328 5.79428 -4.85984
11.7859 5.77951 -4.79528
4.071 5.89773 -11.1896
4.0241 5.88295 -11.125
3.97719 5.86817 -11.0605
3.93028 5.85339 -10.9959
3.88338 5.83862 -10.9314
3.83647 5.82384 -10.8668
3.78956 5.80906 -10.8022
3.74266 5.79428 -10.7377
3.69575 5.77951 -10.6731
7.30706 5.89773 -8.83847
7.26016 5.88295 -8.77391
7.21325 5.86817 -8.70935
7.16635 5.85339 -8.64479
7.11944 5.83862 -8.58023
7.07253 5.82384 -8.51567
7.02563 5.80906 -8.45111
6.97872 5.79428 -8.38655
6.93181 5.77951 -8.32199
11.739 5.76473 -4.73072
3.64885 5.76473 -10.6086
6.88491 5.76473 -8.25742
11.7344 5.77271 -4.72444
11.7243 5.86565 -4.71052
11.7142 5.9586 -4.6966
11.7041 6.05154 -4.68267
3.64429 5.77271 -10.6023
3.63417 5.86565 -10.5884
3.62405 5.9586 -10.5744
3.61394 6.05154 -10.5605
6.88035 5.77271 -8.25115
6.87023 5.86565 -8.23722
6.86012 5.9586 -8.2233
6.85 6.05154 -8.20938
11.694 6.14448 -4.66875
3.60382 6.14448 -10.5466
6.83988 6.14448 -8.19545
11.7138 5.7568 -4.6961
3.62369 5.7568 -10.5739
6.85975 5.7568 -8.2228
10.2087 5.28262 -2.62443
10.2531 5.2966 -2.68554
10.2975 5.31059 -2.74664
10.3419 5.32458 -2.80774
10.3863 5.33856 -2.86884
10.4307 5.35255 -2.92994
10.475 5.36653 -2.99104
10.5194 5.38052 -3.05214
10.5638 5.3945 -3.11325
10.6082 5.40849 -3.17435
10.6526 5.42247 -3.23545
10.697 5.43646 -3.29655
10.7414 5.45045 -3.35765
10.7858 5.46443 -3.41875
10.8302 5.47842 -3.47985
10.8746 5.4924 -3.54096
10.919 5.50639 -3.60206
10.9634 5.52037 -3.66316
11.0078 5.53436 -3.72426
11.0522 5.54834 -3.78536
11.0965 5.56233 -3.84646
11.1409 5.57632 -3.90756
11.1853 5.5903 -3.96867
11.2297 5.60429 -4.02977
11.2741 5.61827 -4.09087
11.3185 5.63226 -4.15197
11.3629 5.64624 -4.21307
11.4073 5.66023 -4.27417
11.4517 5.67421 -4.33527
11.4961 5.6882 -4.39637
11.5405 5.70219 -4.45748
11.5849 5.71617 -4.51858
11.6293 5.73016 -4.57968
11.6737 5.74414 -4.64078
2.11854 5.28262 -8.50227
2.16293 5.2966 -8.56338
2.20733 5.31059 -8.62448
2.25172 5.32458 -8.68558
2.29611 5.33856 -8.74668
2.3405 5.35255 -8.80778
2.3849 5.36653 -8.86888
2.42929 5.38052 -8.92998
2.47368 5.3945 -8.99109
2.51807 5.40849 -9.05219
2.56247 5.42247 -9.11329
2.60686 5.43646 -9.17439
2.65125 5.45045 -9.23549
2.69565 5.46443 -9.29659
2.74004 5.47842 -9.35769
2.78443 5.4924 -9.4188
2.82882 5.50639 -9.4799
2.87322 5.52037 -9.541
2.91761 5.53436 -9.6021
2.962 5.54834 -9.6632
3.0064 5.56233 -9.7243
3.05079 5.57632 -9.7854
3.09518 5.5903 -9.84651
3.13957 5.60429 -9.90761
3.18397 5.61827 -9.96871
3.22836 5.63226 -10.0298
3.27275 5.64624 -10.0909
3.31714 5.66023 -10.152
3.36154 5.67421 -10.2131
3.40593 5.6882 -10.2742
3.45032 5.70219 -10.3353
3.49472 5.71617 -10.3964
3.53911 5.73016 -10.4575
3.5835 5.74414 -10.5186
5.3546 5.28262 -6.15114
5.39899 5.2966 -6.21224
5.44339 5.31059 -6.27334
5.48778 5.32458 -6.33444
5.53217 5.33856 -6.39554
5.57656 5.35255 -6.45665
5.62096 5.36653 -6.51775
5.66535 5.38052 -6.57885
5.70974 5.3945 -6.63995
5.75414 5.40849 -6.70105
5.79853 5.42247 -6.76215
5.84292 5.43646 -6.82325
5.88731 5.45045 -6.88436
5.93171 5.46443 -6.94546
5.9761 5.47842 -7.00656
6.02049 5.4924 -7.06766
6.06489 5.50639 -7.12876
6.10928 5.52037 -7.18986
6.15367 5.53436 -7.25096
6.19806 5.54834 -7.31207
6.24246 5.56233 -7.37317
6.28685 5.57632 -7.43427
6.33124 5.5903 -7.49537
6.37563 5.60429 -7.55647
6.42003 5.61827 -7.61757
6.46442 5.63226 -7.67867
6.50881 5.64624 -7.73978
6.55321 5.66023 -7.80088
6.5976 5.67421 -7.86198
6.64199 5.6882 -7.92308
6.68638 5.70219 -7.98418
6.73078 5.71617 -8.04528
6.77517 5.73016 -8.10638
6.81956 5.74414 -8.16749
11.718 5.75813 -4.70188
3.62789 5.75813 -10.5797
6.86396 5.75813 -8.22859
9.04053 5.13417 -1.0166
8.9959 5.12011 -0.955166
8.95126 5.10605 -0.893732
8.90663 5.09199 -0.832298
8.862 5.07792 -0.770865
8.81736 5.06386 -0.709431
8.77273 5.0498 -0.647997
8.72809 5.03574 -0.586564
8.68346 5.02168 -0.52513
8.63883 5.00762 -0.463696
8.59419 4.99355 -0.402262
8.54956 4.97949 -0.340829
8.50492 4.96543 -0.279395
8.46029 4.95137 -0.217961
8.41565 4.93731 -0.156528
8.37102 4.92325 -0.0950939
8.32639 4.90919 -0.0336602
8.28175 4.89512 0.0277735
8.23712 4.88106 0.0892072
8.19248 4.867 0.150641
8.14785 4.85294 0.212075
8.10321 4.83888 0.273508
8.05858 4.82482 0.334942
8.01395 4.81075 0.396376
7.96931 4.79669 0.457809
7.92468 4.78263 0.519243
7.88004 4.76857 0.580677
7.83541 4.75451 0.642111
7.79078 4.74045 0.703544
7.74614 4.72638 0.764978
7.70151 4.71232 0.826412
7.65687 4.69826 0.887845
7.61224 4.6842 0.949279
7.5676 4.67014 1.01071
0.950379 5.13417 -6.89444
0.905745 5.12011 -6.83301
0.861111 5.10605 -6.77157
0.816477 5.09199 -6.71014
0.771843 5.07792 -6.64871
0.727208 5.06386 -6.58727
0.682574 5.0498 -6.52584
0.63794 5.03574 -6.4644
0.593306 5.02168 -6.40297
0.548672 5.00762 -6.34154
0.504037 4.99355 -6.2801
0.459403 4.97949 -6.21867
0.414769 4.96543 -6.15724
0.370135 4.95137 -6.0958
0.325501 4.93731 -6.03437
0.280866 4.92325 -5.97293
0.236232 4.90919 -5.9115
0.191598 4.89512 -5.85007
0.146964 4.88106 -5.78863
0.10233 4.867 -5.7272
0.0576954 4.85294 -5.66577
0.0130612 4.83888 -5.60433
-0.031573 4.82482 -5.5429
-0.0762072 4.81075 -5.48147
-0.120841 4.79669 -5.42003
-0.165476 4.78263 -5.3586
-0.21011 4.76857 -5.29716
-0.254744 4.75451 -5.23573
-0.299378 4.74045 -5.1743
-0.344012 4.72638 -5.11286
-0.388647 4.71232 -5.05143
-0.433281 4.69826 -4.99
-0.477915 4.6842 -4.92856
-0.522549 4.67014 -4.86713
4.18644 5.13417 -4.5433
4.14181 5.12011 -4.48187
4.09717 5.10605 -4.42044
4.05254 5.09199 -4.359
4.0079 5.07792 -4.29757
3.96327 5.06386 -4.23614
3.91864 5.0498 -4.1747
3.874 5.03574 -4.11327
3.82937 5.02168 -4.05183
3.78473 5.00762 -3.9904
3.7401 4.99355 -3.92897
3.69546 4.97949 -3.86753
3.65083 4.96543 -3.8061
3.6062 4.95137 -3.74467
3.56156 4.93731 -3.68323
3.51693 4.92325 -3.6218
3.47229 4.90919 -3.56036
3.42766 4.89512 -3.49893
3.38303 4.88106 -3.4375
3.33839 4.867 -3.37606
3.29376 4.85294 -3.31463
3.24912 4.83888 -3.2532
3.20449 4.82482 -3.19176
3.15985 4.81075 -3.13033
3.11522 4.79669 -3.06889
3.07059 4.78263 -3.00746
3.02595 4.76857 -2.94603
2.98132 4.75451 -2.88459
2.93668 4.74045 -2.82316
2.89205 4.72638 -2.76173
2.84741 4.71232 -2.70029
2.80278 4.69826 -2.63886
2.75815 4.6842 -2.57743
2.71351 4.67014 -2.51599
7.52297 4.65608 1.07215
-0.567183 4.65608 -4.80569
2.66888 4.65608 -2.45456
7.55472 4.44651 1.02845
7.5991 4.46049 0.967366
7.64348 4.47447 0.906282
7.68786 4.48845 0.845198
7.73224 4.50243 0.784114
7.77662 4.51642 0.72303
7.821 4.5304 0.661946
7.86538 4.54438 0.600862
7.90976 4.55836 0.539778
7.95414 4.57234 0.478695
7.99852 4.58632 0.417611
8.0429 4.6003 0.356527
8.08728 4.61429 0.295443
8.13166 4.62827 0.234359
8.17604 4.64225 0.173275
8.22042 4.65623 0.112191
8.2648 4.67021 0.0511072
8.30918 4.68419 -0.0099767
8.35356 4.69818 -0.0710606
8.39794 4.71216 -0.132145
8.44232 4.72614 -0.193228
8.4867 4.74012 -0.254312
8.53108 4.7541 -0.315396
8.57546 4.76808 -0.37648
8.61984 4.78206 -0.437564
8.66422 4.79605 -0.498648
8.7086 4.81003 -0.559732
8.75298 4.82401 -0.620816
8.79736 4.83799 -0.6819
8.84174 4.85197 -0.742984
8.88612 4.86595 -0.804067
8.9305 4.87994 -0.865151
8.97488 4.89392 -0.926235
9.01926 4.9079 -0.987319
-0.535436 4.44651 -4.84939
-0.491056 4.46049 -4.91048
-0.446676 4.47447 -4.97156
-0.402296 4.48845 -5.03264
-0.357916 4.50243 -5.09373
-0.313535 4.51642 -5.15481
-0.269155 4.5304 -5.21589
-0.224775 4.54438 -5.27698
-0.180395 4.55836 -5.33806
-0.136015 4.57234 -5.39915
-0.0916352 4.58632 -5.46023
-0.0472552 4.6003 -5.52131
-0.00287511 4.61429 -5.5824
0.0415049 4.62827 -5.64348
0.085885 4.64225 -5.70457
0.130265 4.65623 -5.76565
0.174645 4.67021 -5.82673
0.219025 4.68419 -5.88782
0.263405 4.69818 -5.9489
0.307785 4.71216 -6.00999
0.352165 4.72614 -6.07107
0.396545 4.74012 -6.13215
0.440925 4.7541 -6.19324
0.485305 4.76808 -6.25432
0.529686 4.78206 -6.3154
0.574066 4.79605 -6.37649
0.618446 4.81003 -6.43757
0.662826 4.82401 -6.49866
0.707206 4.83799 -6.55974
0.751586 4.85197 -6.62082
0.795966 4.86595 -6.68191
0.840346 4.87994 -6.74299
0.884726 4.89392 -6.80408
0.929106 4.9079 -6.86516
2.70063 4.44651 -2.49825
2.74501 4.46049 -2.55934
2.78939 4.47447 -2.62042
2.83377 4.48845 -2.68151
2.87815 4.50243 -2.74259
2.92253 4.51642 -2.80367
2.96691 4.5304 -2.86476
3.01129 4.54438 -2.92584
3.05567 4.55836 -2.98693
3.10005 4.57234 -3.04801
3.14443 4.58632 -3.10909
3.18881 4.6003 -3.17018
3.23319 4.61429 -3.23126
3.27757 4.62827 -3.29235
3.32195 4.64225 -3.35343
3.36633 4.65623 -3.41451
3.41071 4.67021 -3.4756
3.45509 4.68419 -3.53668
3.49947 4.69818 -3.59777
3.54385 4.71216 -3.65885
3.58823 4.72614 -3.71993
3.63261 4.74012 -3.78102
3.67699 4.7541 -3.8421
3.72137 4.76808 -3.90318
3.76575 4.78206 -3.96427
3.81013 4.79605 -4.02535
3.85451 4.81003 -4.08644
3.89889 4.82401 -4.14752
3.94327 4.83799 -4.2086
3.98765 4.85197 -4.26969
4.03203 4.86595 -4.33077
4.07641 4.87994 -4.39186
4.12079 4.89392 -4.45294
4.16517 4.9079 -4.51402
9.06364 4.92188 -1.0484
0.973486 4.92188 -6.92624
4.20955 4.92188 -4.57511
7.53486 4.45963 1.05578
-0.555291 4.45963 -4.82206
2.68077 4.45963 -2.47093
7.53603 4.4489 1.05417
-0.554123 4.4489 -4.82367
2.68194 4.4489 -2.47253
4.58467 -0.93871 5.11637
-3.50548 -0.93871 -0.761471
-0.269422 -0.93871 1.58967
4.59405 -0.955129 5.10346
-3.4961 -0.955129 -0.77438
-0.260043 -0.955129 1.57676
5.02711 -0.818696 4.5074
4.97853 -0.834003 4.57427
4.92994 -0.849309 4.64114
4.88136 -0.864615 4.70801
4.83277 -0.879922 4.77489
4.78419 -0.895228 4.84176
4.7356 -0.910535 4.90863
4.68702 -0.925841 4.9755
4.63843 -0.941147 5.04238
-3.06304 -0.818696 -1.37044
-3.11163 -0.834003 -1.30357
-3.16021 -0.849309 -1.2367
-3.2088 -0.864615 -1.16983
-3.25738 -0.879922 -1.10295
-3.30597 -0.895228 -1.03608
-3.35455 -0.910535 -0.96921
-3.40314 -0.925841 -0.902338
-3.45172 -0.941147 -0.835466
0.173022 -0.818696 0.980693
0.124436 -0.834003 1.04757
0.075851 -0.849309 1.11444
0.0272655 -0.864615 1.18131
-0.0213199 -0.879922 1.24818
-0.0699054 -0.895228 1.31505
-0.118491 -0.910535 1.38193
-0.167076 -0.925841 1.4488
-0.215662 -0.941147 1.51567
4.58984 -0.956454 5.10925
-3.50031 -0.956454 -0.768594
-0.264247 -0.956454 1.58254
4.56889 -0.963055 5.13809
4.52031 -0.978361 5.20496
4.47172 -0.993668 5.27183
4.42314 -1.00897 5.3387
4.37455 -1.02428 5.40557
4.32597 -1.03959 5.47245
4.27738 -1.05489 5.53932
4.22879 -1.0702 5.60619
4.18021 -1.08551 5.67306
-3.52126 -0.963055 -0.739755
-3.56985 -0.978361 -0.672883
-3.61843 -0.993668 -0.606011
-3.66702 -1.00897 -0.539139
-3.7156 -1.02428 -0.472267
-3.76419 -1.03959 -0.405395
-3.81277 -1.05489 -0.338522
-3.86136 -1.0702 -0.27165
-3.90994 -1.08551 -0.204778
-0.285199 -0.963055 1.61138
-0.333785 -0.978361 1.67825
-0.38237 -0.993668 1.74513
-0.430956 -1.00897 1.812
-0.479541 -1.02428 1.87887
-0.528127 -1.03959 1.94574
-0.576712 -1.05489 2.01261
-0.625298 -1.0702 2.07949
-0.673883 -1.08551 2.14636
4.13162 -1.10081 5.73993
-3.95853 -1.10081 -0.137906
-0.722469 -1.10081 2.21323
4.56999 -0.943335 5.13658
-3.52016 -0.943335 -0.741265
-0.284102 -0.943335 1.60987
2.49506 -1.40974 7.99248
2.50491 -1.50028 7.97891
-5.5951 -1.40974 2.11463
-5.58524 -1.50028 2.10107
-2.35903 -1.40974 4.46577
-2.34918 -1.50028 4.45221
2.51477 -1.59082 7.96535
-5.57539 -1.59082 2.08751
-2.33933 -1.59082 4.43864
2.52414 -1.60723 7.95244
-5.56601 -1.60723 2.0746
-2.32995 -1.60723 4.42574
2.95721 -1.4708 7.35638
2.90862 -1.48611 7.42325
2.86004 -1.50141 7.49012
2.81145 -1.51672 7.55699
2.76287 -1.53203 7.62387
2.71428 -1.54733 7.69074
2.6657 -1.56264 7.75761
2.61711 -1.57795 7.82448
2.56853 -1.59325 7.89135
-5.13294 -1.4708 1.47854
-5.18153 -1.48611 1.54541
-5.23011 -1.50141 1.61228
-5.2787 -1.51672 1.67915
-5.32729 -1.53203 1.74602
-5.37587 -1.54733 1.8129
-5.42446 -1.56264 1.87977
-5.47304 -1.57795 1.94664
-5.52163 -1.59325 2.01351
-1.89688 -1.4708 3.82967
-1.94547 -1.48611 3.89654
-1.99405 -1.50141 3.96342
-2.04264 -1.51672 4.03029
-2.09122 -1.53203 4.09716
-2.13981 -1.54733 4.16403
-2.1884 -1.56264 4.23091
-2.23698 -1.57795 4.29778
-2.28557 -1.59325 4.36465
2.51994 -1.60856 7.95823
-5.57021 -1.60856 2.08039
-2.33415 -1.60856 4.43152
2.49899 -1.61516 7.98706
2.4504 -1.63047 8.05394
2.40182 -1.64577 8.12081
2.35323 -1.66108 8.18768
2.30465 -1.67639 8.25455
2.25606 -1.69169 8.32143
2.20748 -1.707 8.3883
2.15889 -1.7223 8.45517
2.1103 -1.73761 8.52204
-5.59117 -1.61516 2.10922
-5.63975 -1.63047 2.1761
-5.68834 -1.64577 2.24297
-5.73692 -1.66108 2.30984
-5.78551 -1.67639 2.37671
-5.83409 -1.69169 2.44358
-5.88268 -1.707 2.51046
-5.93126 -1.7223 2.57733
-5.97985 -1.73761 2.6442
-2.3551 -1.61516 4.46036
-2.40369 -1.63047 4.52723
-2.45227 -1.64577 4.5941
-2.50086 -1.66108 4.66098
-2.54945 -1.67639 4.72785
-2.59803 -1.69169 4.79472
-2.64662 -1.707 4.86159
-2.6952 -1.7223 4.92846
-2.74379 -1.73761 4.99534
2.06172 -1.75292 8.58891
-6.02843 -1.75292 2.71107
-2.79237 -1.75292 5.06221
2.50009 -1.59544 7.98555
-5.59007 -1.59544 2.10771
-2.35401 -1.59544 4.45885
2.50009 -1.59544 7.98555
2.49023 -1.5049 7.99912
-5.59007 -1.59544 2.10771
-5.59992 -1.5049 2.12128
-2.35401 -1.59544 4.45885
-2.36386 -1.5049 4.47241
2.48038 -1.41437 8.01268
-5.60978 -1.41437 2.13484
-2.37372 -1.41437 4.48598
2.49506 -1.40974 7.99248
-5.5951 -1.40974 2.11463
-2.35903 -1.40974 4.46577
0.887305 -2.12291 10.2054
0.932475 -2.10868 10.1432
0.977645 -2.09445 10.081
1.02281 -2.08022 10.0188
1.06798 -2.06599 9.95667
1.11315 -2.05175 9.8945
1.15832 -2.03752 9.83233
1.20349 -2.02329 9.77016
1.24866 -2.00906 9.70799
1.29383 -1.99483 9.64582
1.339 -1.9806 9.58365
1.38417 -1.96637 9.52148
1.42934 -1.95214 9.45931
1.47451 -1.93791 9.39713
1.51968 -1.92368 9.33496
1.56485 -1.90945 9.27279
1.61002 -1.89522 9.21062
1.65519 -1.88099 9.14845
1.70036 -1.86676 9.08628
1.74553 -1.85253 9.02411
1.7907 -1.8383 8.96194
1.83587 -1.82407 8.89977
1.88104 -1.80984 8.8376
1.92621 -1.79561 8.77543
1.97138 -1.78138 8.71326
2.01655 -1.76715 8.65108
-7.20285 -2.12291 4.32751
-7.15768 -2.10868 4.26534
-7.11251 -2.09445 4.20317
-7.06734 -2.08022 4.141
-7.02217 -2.06599 4.07883
-6.977 -2.05175 4.01666
-6.93183 -2.03752 3.95449
-6.88666 -2.02329 3.89232
-6.84149 -2.00906 3.83015
-6.79632 -1.99483 3.76798
-6.75115 -1.9806 3.70581
-6.70598 -1.96637 3.64364
-6.66081 -1.95214 3.58146
-6.61564 -1.93791 3.51929
-6.57047 -1.92368 3.45712
-6.5253 -1.90945 3.39495
-6.48013 -1.89522 3.33278
-6.43496 -1.88099 3.27061
-6.38979 -1.86676 3.20844
-6.34462 -1.85253 3.14627
-6.29945 -1.8383 3.0841
-6.25428 -1.82407 3.02193
-6.20911 -1.80984 2.95976
-6.16394 -1.79561 2.89759
-6.11877 -1.78138 2.83541
-6.0736 -1.76715 2.77324
-3.96679 -2.12291 6.67865
-3.92162 -2.10868 6.61648
-3.87645 -2.09445 6.55431
-3.83128 -2.08022 6.49214
-3.78611 -2.06599 6.42997
-3.74094 -2.05175 6.3678
-3.69577 -2.03752 6.30563
-3.6506 -2.02329 6.24346
-3.60543 -2.00906 6.18128
-3.56026 -1.99483 6.11911
-3.51509 -1.9806 6.05694
-3.46992 -1.96637 5.99477
-3.42475 -1.95214 5.9326
-3.37958 -1.93791 5.87043
-3.33441 -1.92368 5.80826
-3.28924 -1.90945 5.74609
-3.24407 -1.89522 5.68392
-3.1989 -1.88099 5.62175
-3.15373 -1.86676 5.55958
-3.10856 -1.85253 5.49741
-3.06339 -1.8383 5.43523
-3.01822 -1.82407 5.37306
-2.97305 -1.80984 5.31089
-2.92788 -1.79561 5.24872
-2.88271 -1.78138 5.18655
-2.83754 -1.76715 5.12438
2.06172 -1.75292 8.58891
-6.02843 -1.75292 2.71107
-2.79237 -1.75292 5.06221
2.03861 -1.54063 8.62072
1.99344 -1.55486 8.68289
1.94827 -1.56909 8.74506
1.9031 -1.58332 8.80723
1.85793 -1.59755 8.8694
1.81276 -1.61178 8.93157
1.76759 -1.62601 8.99374
1.72242 -1.64024 9.05591
1.67725 -1.65447 9.11808
1.63208 -1.6687 9.18025
1.58692 -1.68293 9.24243
1.54175 -1.69716 9.3046
1.49658 -1.71139 9.36677
1.45141 -1.72562 9.42894
1.40624 -1.73985 9.49111
1.36107 -1.75408 9.55328
1.3159 -1.76831 9.61545
1.27073 -1.78254 9.67762
1.22556 -1.79677 9.73979
1.18039 -1.811 9.80196
1.13522 -1.82523 9.86413
1.09005 -1.83946 9.9263
1.04488 -1.85369 9.98848
0.999708 -1.86792 10.0506
0.954538 -1.88215 10.1128
0.909369 -1.89639 10.175
-6.05154 -1.54063 2.74288
-6.09671 -1.55486 2.80505
-6.14188 -1.56909 2.86722
-6.18705 -1.58332 2.92939
-6.23222 -1.59755 2.99156
-6.27739 -1.61178 3.05373
-6.32256 -1.62601 3.1159
-6.36773 -1.64024 3.17807
-6.4129 -1.65447 3.24024
-6.45807 -1.6687 3.30241
-6.50324 -1.68293 3.36458
-6.54841 -1.69716 3.42676
-6.59358 -1.71139 3.48893
-6.63875 -1.72562 3.5511
-6.68392 -1.73985 3.61327
-6.72909 -1.75408 3.67544
-6.77426 -1.76831 3.73761
-6.81943 -1.78254 3.79978
-6.8646 -1.79677 3.86195
-6.90977 -1.811 3.92412
-6.95494 -1.82523 3.98629
-7.00011 -1.83946 4.04846
-7.04528 -1.85369 4.11064
-7.09045 -1.86792 4.17281
-7.13562 -1.88215 4.23498
-7.18079 -1.89639 4.29715
-2.81548 -1.54063 5.09401
-2.86065 -1.55486 5.15618
-2.90582 -1.56909 5.21835
-2.95099 -1.58332 5.28053
-2.99616 -1.59755 5.3427
-3.04133 -1.61178 5.40487
-3.0865 -1.62601 5.46704
-3.13167 -1.64024 5.52921
-3.17684 -1.65447 5.59138
-3.22201 -1.6687 5.65355
-3.26718 -1.68293 5.71572
-3.31235 -1.69716 5.77789
-3.35752 -1.71139 5.84006
-3.40269 -1.72562 5.90223
-3.44786 -1.73985 5.9644
-3.49303 -1.75408 6.02658
-3.5382 -1.76831 6.08875
-3.58337 -1.78254 6.15092
-3.62854 -1.79677 6.21309
-3.67371 -1.811 6.27526
-3.71887 -1.82523 6.33743
-3.76404 -1.83946 6.3996
-3.80921 -1.85369 6.46177
-3.85438 -1.86792 6.52394
-3.89955 -1.88215 6.58611
-3.94472 -1.89639 6.64828
0.864199 -1.91062 10.2372
-7.22595 -1.91062 4.35932
-3.98989 -1.91062 6.71045
4.10852 -0.888522 5.77174
4.06335 -0.902752 5.83391
4.01818 -0.916982 5.89608
3.97301 -0.931213 5.95825
3.92784 -0.945443 6.02042
3.88267 -0.959673 6.08259
3.8375 -0.973904 6.14476
3.79233 -0.988134 6.20693
3.74716 -1.00236 6.26911
3.70199 -1.01659 6.33128
3.65682 -1.03082 6.39345
3.61165 -1.04506 6.45562
3.56648 -1.05929 6.51779
3.52131 -1.07352 6.57996
3.47614 -1.08775 6.64213
3.43097 -1.10198 6.7043
3.3858 -1.11621 6.76647
3.34063 -1.13044 6.82864
3.29546 -1.14467 6.89081
3.25029 -1.1589 6.95298
3.20512 -1.17313 7.01516
3.15995 -1.18736 7.07733
3.11478 -1.20159 7.1395
3.06961 -1.21582 7.20167
3.02444 -1.23005 7.26384
2.97927 -1.24428 7.32601
-3.98164 -0.888522 -0.106102
-4.02681 -0.902752 -0.0439316
-4.07198 -0.916982 0.0182393
-4.11715 -0.931213 0.0804101
-4.16232 -0.945443 0.142581
-4.20749 -0.959673 0.204752
-4.25266 -0.973904 0.266923
-4.29783 -0.988134 0.329093
-4.34299 -1.00236 0.391264
-4.38816 -1.01659 0.453435
-4.43333 -1.03082 0.515606
-4.4785 -1.04506 0.577777
-4.52367 -1.05929 0.639948
-4.56884 -1.07352 0.702119
-4.61401 -1.08775 0.764289
-4.65918 -1.10198 0.82646
-4.70435 -1.11621 0.888631
-4.74952 -1.13044 0.950802
-4.79469 -1.14467 1.01297
-4.83986 -1.1589 1.07514
-4.88503 -1.17313 1.13731
-4.9302 -1.18736 1.19949
-4.97537 -1.20159 1.26166
-5.02054 -1.21582 1.32383
-5.06571 -1.23005 1.386
-5.11088 -1.24428 1.44817
-0.745575 -0.888522 2.24503
-0.790745 -0.902752 2.3072
-0.835915 -0.916982 2.36938
-0.881085 -0.931213 2.43155
-0.926254 -0.945443 2.49372
-0.971424 -0.959673 2.55589
-1.01659 -0.973904 2.61806
-1.06176 -0.988134 2.68023
-1.10693 -1.00236 2.7424
-1.1521 -1.01659 2.80457
-1.19727 -1.03082 2.86674
-1.24244 -1.04506 2.92891
-1.28761 -1.05929 2.99108
-1.33278 -1.07352 3.05325
-1.37795 -1.08775 3.11543
-1.42312 -1.10198 3.1776
-1.46829 -1.11621 3.23977
-1.51346 -1.13044 3.30194
-1.55863 -1.14467 3.36411
-1.6038 -1.1589 3.42628
-1.64897 -1.17313 3.48845
-1.69414 -1.18736 3.55062
-1.73931 -1.20159 3.61279
-1.78448 -1.21582 3.67496
-1.82965 -1.23005 3.73713
-1.87482 -1.24428 3.7993
2.9341 -1.25851 7.38818
-5.15605 -1.25851 1.51034
-1.91999 -1.25851 3.86148
-0.0318288 -0.862563 11.4704
-0.0401311 -0.786286 11.4819
-0.0484333 -0.71001 11.4933
-0.0567355 -0.633734 11.5047
-0.0650377 -0.557458 11.5161
-0.0733399 -0.481181 11.5276
-0.0816421 -0.404905 11.539
-0.0899443 -0.328629 11.5504
-0.0982466 -0.252353 11.5619
-0.106549 -0.176077 11.5733
-0.114851 -0.0998003 11.5847
-0.123153 -0.0235241 11.5961
-0.131455 0.0527521 11.6076
-0.139758 0.129028 11.619
-0.14806 0.205305 11.6304
-0.156362 0.281581 11.6418
-0.164664 0.357857 11.6533
-0.172966 0.434133 11.6647
-0.181269 0.510409 11.6761
-0.189571 0.586686 11.6875
-0.197873 0.662962 11.699
-0.206175 0.739238 11.7104
-0.214478 0.815514 11.7218
-0.22278 0.891791 11.7333
-0.231082 0.968067 11.7447
-0.239384 1.04434 11.7561
-0.247686 1.12062 11.7675
-0.255989 1.1969 11.779
-0.264291 1.27317 11.7904
-0.272593 1.34945 11.8018
-0.280895 1.42572 11.8132
-0.289197 1.502 11.8247
-0.2975 1.57828 11.8361
-0.305802 1.65455 11.8475
-0.314104 1.73083 11.859
-0.322406 1.80711 11.8704
-0.330709 1.88338 11.8818
-8.12198 -0.862563 5.59259
-8.13028 -0.786286 5.60402
-8.13859 -0.71001 5.61545
-8.14689 -0.633734 5.62688
-8.15519 -0.557458 5.6383
-8.16349 -0.481181 5.64973
-8.1718 -0.404905 5.66116
-8.1801 -0.328629 5.67258
-8.1884 -0.252353 5.68401
-8.1967 -0.176077 5.69544
-8.205 -0.0998003 5.70686
-8.21331 -0.0235241 5.71829
-8.22161 0.0527521 5.72972
-8.22991 0.129028 5.74115
-8.23821 0.205305 5.75257
-8.24652 0.281581 5.764
-8.25482 0.357857 5.77543
-8.26312 0.434133 5.78685
-8.27142 0.510409 5.79828
-8.27972 0.586686 5.80971
-8.28803 0.662962 5.82114
-8.29633 0.739238 5.83256
-8.30463 0.815514 5.84399
-8.31293 0.891791 5.85542
-8.32124 0.968067 5.86684
-8.32954 1.04434 5.87827
-8.33784 1.12062 5.8897
-8.34614 1.1969 5.90112
-8.35444 1.27317 5.91255
-8.36275 1.34945 5.92398
-8.37105 1.42572 5.93541
-8.37935 1.502 5.94683
-8.38765 1.57828 5.95826
-8.39596 1.65455 5.96969
-8.40426 1.73083 5.98111
-8.41256 1.80711 5.99254
-8.42086 1.88338 6.00397
-4.88592 -0.862563 7.94373
-4.89422 -0.786286 7.95516
-4.90253 -0.71001 7.96659
-4.91083 -0.633734 7.97801
-4.91913 -0.557458 7.98944
-4.92743 -0.481181 8.00087
-4.93573 -0.404905 8.01229
-4.94404 -0.328629 8.02372
-4.95234 -0.252353 8.03515
-4.96064 -0.176077 8.04657
-4.96894 -0.0998003 8.058
-4.97725 -0.0235241 8.06943
-4.98555 0.0527521 8.08086
-4.99385 0.129028 8.09228
-5.00215 0.205305 8.10371
-5.01045 0.281581 8.11514
-5.01876 0.357857 8.12656
-5.02706 0.434133 8.13799
-5.03536 0.510409 8.14942
-5.04366 0.586686 8.16084
-5.05197 0.662962 8.17227
-5.06027 0.739238 8.1837
-5.06857 0.815514 8.19513
-5.07687 0.891791 8.20655
-5.08517 0.968067 8.21798
-5.09348 1.04434 8.22941
-5.10178 1.12062 8.24083
-5.11008 1.1969 8.25226
-5.11838 1.27317 8.26369
-5.12669 1.34945 8.27511
-5.13499 1.42572 8.28654
-5.14329 1.502 8.29797
-5.15159 1.57828 8.3094
-5.15989 1.65455 8.32082
-5.1682 1.73083 8.33225
-5.1765 1.80711 8.34368
-5.1848 1.88338 8.3551
-0.339011 1.95966 11.8932
-8.42916 1.95966 6.01539
-5.1931 1.95966 8.36653
-0.463792 1.92035 12.065
-0.45549 1.84407 12.0536
-0.447188 1.76779 12.0421
-0.438886 1.69152 12.0307
-0.430583 1.61524 12.0193
-0.422281 1.53897 12.0078
-0.413979 1.46269 11.9964
-0.405677 1.38641 11.985
-0.397375 1.31014 11.9736
-0.389072 1.23386 11.9621
-0.38077 1.15758 11.9507
-0.372468 1.08131 11.9393
-0.364166 1.00503 11.9279
-0.355863 0.928756 11.9164
-0.347561 0.852479 11.905
-0.339259 0.776203 11.8936
-0.330957 0.699927 11.8821
-0.322655 0.623651 11.8707
-0.314352 0.547374 11.8593
-0.30605 0.471098 11.8479
-0.297748 0.394822 11.8364
-0.289446 0.318546 11.825
-0.281144 0.242269 11.8136
-0.272841 0.165993 11.8022
-0.264539 0.089717 11.7907
-0.256237 0.0134408 11.7793
-0.247935 -0.0628354 11.7679
-0.239632 -0.139112 11.7565
-0.23133 -0.215388 11.745
-0.223028 -0.291664 11.7336
-0.214726 -0.36794 11.7222
-0.206424 -0.444217 11.7107
-0.198121 -0.520493 11.6993
-0.189819 -0.596769 11.6879
-0.181517 -0.673045 11.6765
-0.173215 -0.749321 11.665
-0.164913 -0.825598 11.6536
-8.55395 1.92035 6.18714
-8.54564 1.84407 6.17571
-8.53734 1.76779 6.16429
-8.52904 1.69152 6.15286
-8.52074 1.61524 6.14143
-8.51243 1.53897 6.13001
-8.50413 1.46269 6.11858
-8.49583 1.38641 6.10715
-8.48753 1.31014 6.09573
-8.47923 1.23386 6.0843
-8.47092 1.15758 6.07287
-8.46262 1.08131 6.06144
-8.45432 1.00503 6.05002
-8.44602 0.928756 6.03859
-8.43771 0.852479 6.02716
-8.42941 0.776203 6.01574
-8.42111 0.699927 6.00431
-8.41281 0.623651 5.99288
-8.40451 0.547374 5.98146
-8.3962 0.471098 5.97003
-8.3879 0.394822 5.9586
-8.3796 0.318546 5.94717
-8.3713 0.242269 5.93575
-8.363 0.165993 5.92432
-8.35469 0.089717 5.91289
-8.34639 0.0134408 5.90147
-8.33809 -0.0628354 5.89004
-8.32979 -0.139112 5.87861
-8.32148 -0.215388 5.86718
-8.31318 -0.291664 5.85576
-8.30488 -0.36794 5.84433
-8.29658 -0.444217 5.8329
-8.28828 -0.520493 5.82148
-8.27997 -0.596769 5.81005
-8.27167 -0.673045 5.79862
-8.26337 -0.749321 5.7872
-8.25507 -0.825598 5.77577
-5.31788 1.92035 8.53828
-5.30958 1.84407 8.52685
-5.30128 1.76779 8.51542
-5.29298 1.69152 8.504
-5.28468 1.61524 8.49257
-5.27637 1.53897 8.48114
-5.26807 1.46269 8.46972
-5.25977 1.38641 8.45829
-5.25147 1.31014 8.44686
-5.24316 1.23386 8.43543
-5.23486 1.15758 8.42401
-5.22656 1.08131 8.41258
-5.21826 1.00503 8.40115
-5.20996 0.928756 8.38973
-5.20165 0.852479 8.3783
-5.19335 0.776203 8.36687
-5.18505 0.699927 8.35545
-5.17675 0.623651 8.34402
-5.16844 0.547374 8.33259
-5.16014 0.471098 8.32116
-5.15184 0.394822 8.30974
-5.14354 0.318546 8.29831
-5.13524 0.242269 8.28688
-5.12693 0.165993 8.27546
-5.11863 0.089717 8.26403
-5.11033 0.0134408 8.2526
-5.10203 -0.0628354 8.24118
-5.09372 -0.139112 8.22975
-5.08542 -0.215388 8.21832
-5.07712 -0.291664 8.20689
-5.06882 -0.36794 8.19547
-5.06052 -0.444217 8.18404
-5.05221 -0.520493 8.17261
-5.04391 -0.596769 8.16119
-5.03561 -0.673045 8.14976
-5.02731 -0.749321 8.13833
-5.019 -0.825598 8.12691
-0.15661 -0.901874 11.6422
-8.24676 -0.901874 5.76434
-5.0107 -0.901874 8.11548
-2.85355 25.0619 15.3542
-2.86186 25.1382 15.3656
-2.87016 25.2145 15.3771
-2.87846 25.2907 15.3885
-2.88676 25.367 15.3999
-2.89506 25.4433 15.4113
-2.90337 25.5196 15.4228
-2.91167 25.5958 15.4342
-2.91997 25.6721 15.4456
-2.92827 25.7484 15.457
-2.93658 25.8247 15.4685
-2.94488 25.9009 15.4799
-2.95318 25.9772 15.4913
-2.96148 26.0535 15.5028
-2.96978 26.1298 15.5142
-2.97809 26.206 15.5256
-2.98639 26.2823 15.537
-2.99469 26.3586 15.5485
-3.00299 26.4349 15.5599
-3.0113 26.5112 15.5713
-3.0196 26.5874 15.5827
-3.0279 26.6637 15.5942
-3.0362 26.74 15.6056
-3.0445 26.8163 15.617
-3.05281 26.8925 15.6285
-3.06111 26.9688 15.6399
-3.06941 27.0451 15.6513
-3.07771 27.1214 15.6627
-3.08602 27.1976 15.6742
-3.09432 27.2739 15.6856
-3.10262 27.3502 15.697
-3.11092 27.4265 15.7084
-3.11922 27.5027 15.7199
-3.12753 27.579 15.7313
-3.13583 27.6553 15.7427
-3.14413 27.7316 15.7542
-3.15243 27.8078 15.7656
-10.9437 25.0619 9.47636
-10.952 25.1382 9.48779
-10.9603 25.2145 9.49922
-10.9686 25.2907 9.51065
-10.9769 25.367 9.52207
-10.9852 25.4433 9.5335
-10.9935 25.5196 9.54493
-11.0018 25.5958 9.55635
-11.0101 25.6721 9.56778
-11.0184 25.7484 9.57921
-11.0267 25.8247 9.59064
-11.035 25.9009 9.60206
-11.0433 25.9772 9.61349
-11.0516 26.0535 9.62492
-11.0599 26.1298 9.63634
-11.0682 26.206 9.64777
-11.0765 26.2823 9.6592
-11.0848 26.3586 9.67062
-11.0931 26.4349 9.68205
-11.1014 26.5112 9.69348
-11.1098 26.5874 9.70491
-11.1181 26.6637 9.71633
-11.1264 26.74 9.72776
-11.1347 26.8163 9.73919
-11.143 26.8925 9.75061
-11.1513 26.9688 9.76204
-11.1596 27.0451 9.77347
-11.1679 27.1214 9.78489
-11.1762 27.1976 9.79632
-11.1845 27.2739 9.80775
-11.1928 27.3502 9.81918
-11.2011 27.4265 9.8306
-11.2094 27.5027 9.84203
-11.2177 27.579 9.85346
-11.226 27.6553 9.86488
-11.2343 27.7316 9.87631
-11.2426 27.8078 9.88774
-7.70765 25.0619 11.8275
-7.71595 25.1382 11.8389
-7.72425 25.2145 11.8504
-7.73255 25.2907 11.8618
-7.74085 25.367 11.8732
-7.74916 25.4433 11.8846
-7.75746 25.5196 11.8961
-7.76576 25.5958 11.9075
-7.77406 25.6721 11.9189
-7.78237 25.7484 11.9303
-7.79067 25.8247 11.9418
-7.79897 25.9009 11.9532
-7.80727 25.9772 11.9646
-7.81557 26.0535 11.9761
-7.82388 26.1298 11.9875
-7.83218 26.206 11.9989
-7.84048 26.2823 12.0103
-7.84878 26.3586 12.0218
-7.85709 26.4349 12.0332
-7.86539 26.5112 12.0446
-7.87369 26.5874 12.056
-7.88199 26.6637 12.0675
-7.89029 26.74 12.0789
-7.8986 26.8163 12.0903
-7.9069 26.8925 12.1017
-7.9152 26.9688 12.1132
-7.9235 27.0451 12.1246
-7.93181 27.1214 12.136
-7.94011 27.1976 12.1475
-7.94841 27.2739 12.1589
-7.95671 27.3502 12.1703
-7.96501 27.4265 12.1817
-7.97332 27.5027 12.1932
-7.98162 27.579 12.2046
-7.98992 27.6553 12.216
-7.99822 27.7316 12.2274
-8.00653 27.8078 12.2389
-3.16073 27.8841 15.777
-11.2509 27.8841 9.89916
-8.01483 27.8841 12.2503
-3.28552 27.8448 15.9488
-3.27721 27.7685 15.9373
-3.26891 27.6923 15.9259
-3.26061 27.616 15.9145
-3.25231 27.5397 15.903
-3.24401 27.4634 15.8916
-3.2357 27.3872 15.8802
-3.2274 27.3109 15.8688
-3.2191 27.2346 15.8573
-3.2108 27.1583 15.8459
-3.20249 27.0821 15.8345
-3.19419 27.0058 15.8231
-3.18589 26.9295 15.8116
-3.17759 26.8532 15.8002
-3.16929 26.7769 15.7888
-3.16098 26.7007 15.7773
-3.15268 26.6244 15.7659
-3.14438 26.5481 15.7545
-3.13608 26.4718 15.7431
-3.12777 26.3956 15.7316
-3.11947 26.3193 15.7202
-3.11117 26.243 15.7088
-3.10287 26.1667 15.6974
-3.09457 26.0905 15.6859
-3.08626 26.0142 15.6745
-3.07796 25.9379 15.6631
-3.06966 25.8616 15.6516
-3.06136 25.7854 15.6402
-3.05305 25.7091 15.6288
-3.04475 25.6328 15.6174
-3.03645 25.5565 15.6059
-3.02815 25.4803 15.5945
-3.01985 25.404 15.5831
-3.01154 25.3277 15.5717
-3.00324 25.2514 15.5602
-2.99494 25.1751 15.5488
-2.98664 25.0989 15.5374
-11.3757 27.8448 10.0709
-11.3674 27.7685 10.0595
-11.3591 27.6923 10.0481
-11.3508 27.616 10.0366
-11.3425 27.5397 10.0252
-11.3342 27.4634 10.0138
-11.3259 27.3872 10.0023
-11.3176 27.3109 9.99092
-11.3093 27.2346 9.9795
-11.301 27.1583 9.96807
-11.2926 27.0821 9.95664
-11.2843 27.0058 9.94521
-11.276 26.9295 9.93379
-11.2677 26.8532 9.92236
-11.2594 26.7769 9.91093
-11.2511 26.7007 9.89951
-11.2428 26.6244 9.88808
-11.2345 26.5481 9.87665
-11.2262 26.4718 9.86523
-11.2179 26.3956 9.8538
-11.2096 26.3193 9.84237
-11.2013 26.243 9.83094
-11.193 26.1667 9.81952
-11.1847 26.0905 9.80809
-11.1764 26.0142 9.79666
-11.1681 25.9379 9.78524
-11.1598 25.8616 9.77381
-11.1515 25.7854 9.76238
-11.1432 25.7091 9.75096
-11.1349 25.6328 9.73953
-11.1266 25.5565 9.7281
-11.1183 25.4803 9.71667
-11.11 25.404 9.70525
-11.1017 25.3277 9.69382
-11.0934 25.2514 9.68239
-11.0851 25.1751 9.67097
-11.0768 25.0989 9.65954
-8.13961 27.8448 12.422
-8.13131 27.7685 12.4106
-8.123 27.6923 12.3992
-8.1147 27.616 12.3878
-8.1064 27.5397 12.3763
-8.0981 27.4634 12.3649
-8.0898 27.3872 12.3535
-8.08149 27.3109 12.3421
-8.07319 27.2346 12.3306
-8.06489 27.1583 12.3192
-8.05659 27.0821 12.3078
-8.04828 27.0058 12.2964
-8.03998 26.9295 12.2849
-8.03168 26.8532 12.2735
-8.02338 26.7769 12.2621
-8.01508 26.7007 12.2506
-8.00677 26.6244 12.2392
-7.99847 26.5481 12.2278
-7.99017 26.4718 12.2164
-7.98187 26.3956 12.2049
-7.97356 26.3193 12.1935
-7.96526 26.243 12.1821
-7.95696 26.1667 12.1707
-7.94866 26.0905 12.1592
-7.94036 26.0142 12.1478
-7.93205 25.9379 12.1364
-7.92375 25.8616 12.1249
-7.91545 25.7854 12.1135
-7.90715 25.7091 12.1021
-7.89884 25.6328 12.0907
-7.89054 25.5565 12.0792
-7.88224 25.4803 12.0678
-7.87394 25.404 12.0564
-7.86564 25.3277 12.045
-7.85733 25.2514 12.0335
-7.84903 25.1751 12.0221
-7.84073 25.0989 12.0107
-2.97833 25.0226 15.526
-11.0685 25.0226 9.64811
-7.83243 25.0226 11.9992
-0.972404 7.77893 12.765
-0.980706 7.8552 12.7765
-0.989008 7.93148 12.7879
-0.99731 8.00776 12.7993
-1.00561 8.08403 12.8107
-1.01391 8.16031 12.8222
-1.02222 8.23658 12.8336
-1.03052 8.31286 12.845
-1.03882 8.38914 12.8564
-1.04712 8.46541 12.8679
-1.05543 8.54169 12.8793
-1.06373 8.61796 12.8907
-1.07203 8.69424 12.9021
-1.08033 8.77052 12.9136
-1.08863 8.84679 12.925
-1.09694 8.92307 12.9364
-1.10524 8.99935 12.9479
-1.11354 9.07562 12.9593
-1.12184 9.1519 12.9707
-1.13015 9.22817 12.9821
-1.13845 9.30445 12.9936
-1.14675 9.38073 13.005
-1.15505 9.457 13.0164
-1.16335 9.53328 13.0278
-1.17166 9.60956 13.0393
-1.17996 9.68583 13.0507
-1.18826 9.76211 13.0621
-1.19656 9.83838 13.0736
-1.20487 9.91466 13.085
-1.21317 9.99094 13.0964
-1.22147 10.0672 13.1078
-1.22977 10.1435 13.1193
-1.23807 10.2198 13.1307
-1.24638 10.296 13.1421
-1.25468 10.3723 13.1535
-1.26298 10.4486 13.165
-1.27128 10.5249 13.1764
-9.06256 7.77893 6.88718
-9.07086 7.8552 6.89861
-9.07916 7.93148 6.91004
-9.08746 8.00776 6.92147
-9.09577 8.08403 6.93289
-9.10407 8.16031 6.94432
-9.11237 8.23658 6.95575
-9.12067 8.31286 6.96717
-9.12898 8.38914 6.9786
-9.13728 8.46541 6.99003
-9.14558 8.54169 7.00146
-9.15388 8.61796 7.01288
-9.16218 8.69424 7.02431
-9.17049 8.77052 7.03574
-9.17879 8.84679 7.04716
-9.18709 8.92307 7.05859
-9.19539 8.99935 7.07002
-9.20369 9.07562 7.08144
-9.212 9.1519 7.09287
-9.2203 9.22817 7.1043
-9.2286 9.30445 7.11573
-9.2369 9.38073 7.12715
-9.24521 9.457 7.13858
-9.25351 9.53328 7.15001
-9.26181 9.60956 7.16143
-9.27011 9.68583 7.17286
-9.27841 9.76211 7.18429
-9.28672 9.83838 7.19571
-9.29502 9.91466 7.20714
-9.30332 9.99094 7.21857
-9.31162 10.0672 7.23
-9.31993 10.1435 7.24142
-9.32823 10.2198 7.25285
-9.33653 10.296 7.26428
-9.34483 10.3723 7.2757
-9.35313 10.4486 7.28713
-9.36144 10.5249 7.29856
-5.8265 7.77893 9.23832
-5.8348 7.8552 9.24975
-5.8431 7.93148 9.26118
-5.8514 8.00776 9.2726
-5.8597 8.08403 9.28403
-5.86801 8.16031 9.29546
-5.87631 8.23658 9.30688
-5.88461 8.31286 9.31831
-5.89291 8.38914 9.32974
-5.90122 8.46541 9.34116
-5.90952 8.54169 9.35259
-5.91782 8.61796 9.36402
-5.92612 8.69424 9.37545
-5.93442 8.77052 9.38687
-5.94273 8.84679 9.3983
-5.95103 8.92307 9.40973
-5.95933 8.99935 9.42115
-5.96763 9.07562 9.43258
-5.97594 9.1519 9.44401
-5.98424 9.22817 9.45543
-5.99254 9.30445 9.46686
-6.00084 9.38073 9.47829
-6.00914 9.457 9.48972
-6.01745 9.53328 9.50114
-6.02575 9.60956 9.51257
-6.03405 9.68583 9.524
-6.04235 9.76211 9.53542
-6.05066 9.83838 9.54685
-6.05896 9.91466 9.55828
-6.06726 9.99094 9.5697
-6.07556 10.0672 9.58113
-6.08386 10.1435 9.59256
-6.09217 10.2198 9.60399
-6.10047 10.296 9.61541
-6.10877 10.3723 9.62684
-6.11707 10.4486 9.63827
-6.12538 10.5249 9.64969
-1.27959 10.6011 13.1878
-9.36974 10.6011 7.30998
-6.13368 10.6011 9.66112
-1.40437 10.5618 13.3596
-1.39606 10.4856 13.3481
-1.38776 10.4093 13.3367
-1.37946 10.333 13.3253
-1.37116 10.2567 13.3139
-1.36286 10.1805 13.3024
-1.35455 10.1042 13.291
-1.34625 10.0279 13.2796
-1.33795 9.95163 13.2682
-1.32965 9.87535 13.2567
-1.32134 9.79907 13.2453
-1.31304 9.7228 13.2339
-1.30474 9.64652 13.2224
-1.29644 9.57024 13.211
-1.28814 9.49397 13.1996
-1.27983 9.41769 13.1882
-1.27153 9.34142 13.1767
-1.26323 9.26514 13.1653
-1.25493 9.18886 13.1539
-1.24662 9.11259 13.1425
-1.23832 9.03631 13.131
-1.23002 8.96003 13.1196
-1.22172 8.88376 13.1082
-1.21342 8.80748 13.0968
-1.20511 8.73121 13.0853
-1.19681 8.65493 13.0739
-1.18851 8.57865 13.0625
-1.18021 8.50238 13.051
-1.1719 8.4261 13.0396
-1.1636 8.34982 13.0282
-1.1553 8.27355 13.0168
-1.147 8.19727 13.0053
-1.1387 8.121 12.9939
-1.13039 8.04472 12.9825
-1.12209 7.96844 12.9711
-1.11379 7.89217 12.9596
-1.10549 7.81589 12.9482
-9.49452 10.5618 7.48173
-9.48622 10.4856 7.4703
-9.47792 10.4093 7.45888
-9.46961 10.333 7.44745
-9.46131 10.2567 7.43602
-9.45301 10.1805 7.4246
-9.44471 10.1042 7.41317
-9.43641 10.0279 7.40174
-9.4281 9.95163 7.39032
-9.4198 9.87535 7.37889
-9.4115 9.79907 7.36746
-9.4032 9.7228 7.35603
-9.39489 9.64652 7.34461
-9.38659 9.57024 7.33318
-9.37829 9.49397 7.32175
-9.36999 9.41769 7.31033
-9.36169 9.34142 7.2989
-9.35338 9.26514 7.28747
-9.34508 9.18886 7.27605
-9.33678 9.11259 7.26462
-9.32848 9.03631 7.25319
-9.32017 8.96003 7.24176
-9.31187 8.88376 7.23034
-9.30357 8.80748 7.21891
-9.29527 8.73121 7.20748
-9.28697 8.65493 7.19606
-9.27866 8.57865 7.18463
-9.27036 8.50238 7.1732
-9.26206 8.4261 7.16177
-9.25376 8.34982 7.15035
-9.24545 8.27355 7.13892
-9.23715 8.19727 7.12749
-9.22885 8.121 7.11607
-9.22055 8.04472 7.10464
-9.21225 7.96844 7.09321
-9.20394 7.89217 7.08179
-9.19564 7.81589 7.07036
-6.25846 10.5618 9.83287
-6.25016 10.4856 9.82144
-6.24185 10.4093 9.81001
-6.23355 10.333 9.79859
-6.22525 10.2567 9.78716
-6.21695 10.1805 9.77573
-6.20865 10.1042 9.76431
-6.20034 10.0279 9.75288
-6.19204 9.95163 9.74145
-6.18374 9.87535 9.73002
-6.17544 9.79907 9.7186
-6.16713 9.7228 9.70717
-6.15883 9.64652 9.69574
-6.15053 9.57024 9.68432
-6.14223 9.49397 9.67289
-6.13393 9.41769 9.66146
-6.12562 9.34142 9.65004
-6.11732 9.26514 9.63861
-6.10902 9.18886 9.62718
-6.10072 9.11259 9.61575
-6.09241 9.03631 9.60433
-6.08411 8.96003 9.5929
-6.07581 8.88376 9.58147
-6.06751 8.80748 9.57005
-6.05921 8.73121 9.55862
-6.0509 8.65493 9.54719
-6.0426 8.57865 9.53577
-6.0343 8.50238 9.52434
-6.026 8.4261 9.51291
-6.0177 8.34982 9.50148
-6.00939 8.27355 9.49006
-6.00109 8.19727 9.47863
-5.99279 8.121 9.4672
-5.98449 8.04472 9.45578
-5.97618 7.96844 9.44435
-5.96788 7.89217 9.43292
-5.95958 7.81589 9.4215
-1.09719 7.73962 12.9368
-9.18734 7.73962 7.05893
-5.95128 7.73962 9.41007
-0.502116 3.45818 12.1177
-0.510418 3.53446 12.1292
-0.518721 3.61073 12.1406
-0.527023 3.68701 12.152
-0.535325 3.76329 12.1634
-0.543627 3.83956 12.1749
-0.551929 3.91584 12.1863
-0.560232 3.99212 12.1977
-0.568534 4.06839 12.2091
-0.576836 4.14467 12.2206
-0.585138 4.22094 12.232
-0.593441 4.29722 12.2434
-0.601743 4.3735 12.2549
-0.610045 4.44977 12.2663
-0.618347 4.52605 12.2777
-0.626649 4.60233 12.2891
-0.634952 4.6786 12.3006
-0.643254 4.75488 12.312
-0.651556 4.83115 12.3234
-0.659858 4.90743 12.3348
-0.66816 4.98371 12.3463
-0.676463 5.05998 12.3577
-0.684765 5.13626 12.3691
-0.693067 5.21254 12.3806
-0.701369 5.28881 12.392
-0.709672 5.36509 12.4034
-0.717974 5.44136 12.4148
-0.726276 5.51764 12.4263
-0.734578 5.59392 12.4377
-0.74288 5.67019 12.4491
-0.751183 5.74647 12.4605
-0.759485 5.82274 12.472
-0.767787 5.89902 12.4834
-0.776089 5.9753 12.4948
-0.784391 6.05157 12.5062
-0.792694 6.12785 12.5177
-0.800996 6.20413 12.5291
-8.59227 3.45818 6.23989
-8.60057 3.53446 6.25132
-8.60887 3.61073 6.26274
-8.61718 3.68701 6.27417
-8.62548 3.76329 6.2856
-8.63378 3.83956 6.29702
-8.64208 3.91584 6.30845
-8.65039 3.99212 6.31988
-8.65869 4.06839 6.33131
-8.66699 4.14467 6.34273
-8.67529 4.22094 6.35416
-8.68359 4.29722 6.36559
-8.6919 4.3735 6.37701
-8.7002 4.44977 6.38844
-8.7085 4.52605 6.39987
-8.7168 4.60233 6.4113
-8.72511 4.6786 6.42272
-8.73341 4.75488 6.43415
-8.74171 4.83115 6.44558
-8.75001 4.90743 6.457
-8.75831 4.98371 6.46843
-8.76662 5.05998 6.47986
-8.77492 5.13626 6.49128
-8.78322 5.21254 6.50271
-8.79152 5.28881 6.51414
-8.79983 5.36509 6.52557
-8.80813 5.44136 6.53699
-8.81643 5.51764 6.54842
-8.82473 5.59392 6.55985
-8.83303 5.67019 6.57127
-8.84134 5.74647 6.5827
-8.84964 5.82274 6.59413
-8.85794 5.89902 6.60555
-8.86624 5.9753 6.61698
-8.87455 6.05157 6.62841
-8.88285 6.12785 6.63984
-8.89115 6.20413 6.65126
-5.35621 3.45818 8.59103
-5.36451 3.53446 8.60245
-5.37281 3.61073 8.61388
-5.38112 3.68701 8.62531
-5.38942 3.76329 8.63673
-5.39772 3.83956 8.64816
-5.40602 3.91584 8.65959
-5.41432 3.99212 8.67102
-5.42263 4.06839 8.68244
-5.43093 4.14467 8.69387
-5.43923 4.22094 8.7053
-5.44753 4.29722 8.71672
-5.45584 4.3735 8.72815
-5.46414 4.44977 8.73958
-5.47244 4.52605 8.751
-5.48074 4.60233 8.76243
-5.48904 4.6786 8.77386
-5.49735 4.75488 8.78529
-5.50565 4.83115 8.79671
-5.51395 4.90743 8.80814
-5.52225 4.98371 8.81957
-5.53055 5.05998 8.83099
-5.53886 5.13626 8.84242
-5.54716 5.21254 8.85385
-5.55546 5.28881 8.86527
-5.56376 5.36509 8.8767
-5.57207 5.44136 8.88813
-5.58037 5.51764 8.89956
-5.58867 5.59392 8.91098
-5.59697 5.67019 8.92241
-5.60527 5.74647 8.93384
-5.61358 5.82274 8.94526
-5.62188 5.89902 8.95669
-5.63018 5.9753 8.96812
-5.63848 6.05157 8.97954
-5.64679 6.12785 8.99097
-5.65509 6.20413 9.0024
-0.809298 6.2804 12.5405
-8.89945 6.2804 6.66269
-5.66339 6.2804 9.01383
-0.93408 6.24109 12.7123
-0.925777 6.16481 12.7009
-0.917475 6.08854 12.6894
-0.909173 6.01226 12.678
-0.900871 5.93599 12.6666
-0.892569 5.85971 12.6551
-0.884266 5.78343 12.6437
-0.875964 5.70716 12.6323
-0.867662 5.63088 12.6209
-0.85936 5.5546 12.6094
-0.851057 5.47833 12.598
-0.842755 5.40205 12.5866
-0.834453 5.32578 12.5752
-0.826151 5.2495 12.5637
-0.817849 5.17322 12.5523
-0.809546 5.09695 12.5409
-0.801244 5.02067 12.5294
-0.792942 4.9444 12.518
-0.78464 4.86812 12.5066
-0.776338 4.79184 12.4952
-0.768035 4.71557 12.4837
-0.759733 4.63929 12.4723
-0.751431 4.56301 12.4609
-0.743129 4.48674 12.4495
-0.734826 4.41046 12.438
-0.726524 4.33419 12.4266
-0.718222 4.25791 12.4152
-0.70992 4.18163 12.4037
-0.701618 4.10536 12.3923
-0.693315 4.02908 12.3809
-0.685013 3.9528 12.3695
-0.676711 3.87653 12.358
-0.668409 3.80025 12.3466
-0.660107 3.72398 12.3352
-0.651804 3.6477 12.3238
-0.643502 3.57142 12.3123
-0.6352 3.49515 12.3009
-9.02423 6.24109 6.83444
-9.01593 6.16481 6.82301
-9.00763 6.08854 6.81158
-8.99933 6.01226 6.80016
-8.99102 5.93599 6.78873
-8.98272 5.85971 6.7773
-8.97442 5.78343 6.76587
-8.96612 5.70716 6.75445
-8.95782 5.63088 6.74302
-8.94951 5.5546 6.73159
-8.94121 5.47833 6.72017
-8.93291 5.40205 6.70874
-8.92461 5.32578 6.69731
-8.9163 5.2495 6.68589
-8.908 5.17322 6.67446
-8.8997 5.09695 6.66303
-8.8914 5.02067 6.6516
-8.8831 4.9444 6.64018
-8.87479 4.86812 6.62875
-8.86649 4.79184 6.61732
-8.85819 4.71557 6.6059
-8.84989 4.63929 6.59447
-8.84158 4.56301 6.58304
-8.83328 4.48674 6.57162
-8.82498 4.41046 6.56019
-8.81668 4.33419 6.54876
-8.80838 4.25791 6.53733
-8.80007 4.18163 6.52591
-8.79177 4.10536 6.51448
-8.78347 4.02908 6.50305
-8.77517 3.9528 6.49163
-8.76686 3.87653 6.4802
-8.75856 3.80025 6.46877
-8.75026 3.72398 6.45734
-8.74196 3.6477 6.44592
-8.73366 3.57142 6.43449
-8.72535 3.49515 6.42306
-5.78817 6.24109 9.18557
-5.77987 6.16481 9.17415
-5.77157 6.08854 9.16272
-5.76327 6.01226 9.15129
-5.75496 5.93599 9.13986
-5.74666 5.85971 9.12844
-5.73836 5.78343 9.11701
-5.73006 5.70716 9.10558
-5.72175 5.63088 9.09416
-5.71345 5.5546 9.08273
-5.70515 5.47833 9.0713
-5.69685 5.40205 9.05988
-5.68855 5.32578 9.04845
-5.68024 5.2495 9.03702
-5.67194 5.17322 9.02559
-5.66364 5.09695 9.01417
-5.65534 5.02067 9.00274
-5.64703 4.9444 8.99131
-5.63873 4.86812 8.97989
-5.63043 4.79184 8.96846
-5.62213 4.71557 8.95703
-5.61383 4.63929 8.94561
-5.60552 4.56301 8.93418
-5.59722 4.48674 8.92275
-5.58892 4.41046 8.91132
-5.58062 4.33419 8.8999
-5.57231 4.25791 8.88847
-5.56401 4.18163 8.87704
-5.55571 4.10536 8.86562
-5.54741 4.02908 8.85419
-5.53911 3.9528 8.84276
-5.5308 3.87653 8.83134
-5.5225 3.80025 8.81991
-5.5142 3.72398 8.80848
-5.5059 3.6477 8.79705
-5.49759 3.57142 8.78563
-5.48929 3.49515 8.7742
-0.626898 3.41887 12.2895
-8.71705 3.41887 6.41164
-5.48099 3.41887 8.76277
-0.694041 4.31475 12.3819
-8.7842 4.31475 6.50405
-5.54813 4.31475 8.85519
-0.808215 5.36371 12.539
-8.89837 5.36371 6.6612
-5.66231 5.36371 9.01234
-2.47977 21.6278 14.8397
-2.48855 21.7085 14.8518
-2.49733 21.7892 14.8639
-2.50612 21.8699 14.876
-2.5149 21.9505 14.8881
-2.52368 22.0312 14.9002
-2.53247 22.1119 14.9123
-2.54125 22.1926 14.9244
-2.55003 22.2733 14.9364
-2.55881 22.354 14.9485
-2.5676 22.4347 14.9606
-2.57638 22.5154 14.9727
-2.58516 22.5961 14.9848
-10.5699 21.6278 8.9619
-10.5787 21.7085 8.97398
-10.5875 21.7892 8.98607
-10.5963 21.8699 8.99816
-10.6051 21.9505 9.01025
-10.6138 22.0312 9.02234
-10.6226 22.1119 9.03443
-10.6314 22.1926 9.04651
-10.6402 22.2733 9.0586
-10.649 22.354 9.07069
-10.6577 22.4347 9.08278
-10.6665 22.5154 9.09487
-10.6753 22.5961 9.10695
-7.33386 21.6278 11.313
-7.34264 21.7085 11.3251
-7.35143 21.7892 11.3372
-7.36021 21.8699 11.3493
-7.36899 21.9505 11.3614
-7.37777 22.0312 11.3735
-7.38656 22.1119 11.3856
-7.39534 22.1926 11.3977
-7.40412 22.2733 11.4097
-7.41291 22.354 11.4218
-7.42169 22.4347 11.4339
-7.43047 22.5154 11.446
-7.43925 22.5961 11.4581
-2.59394 22.6768 14.9969
-10.6841 22.6768 9.11904
-7.44804 22.6768 11.4702
-2.57519 21.5977 14.9711
-10.6653 21.5977 9.09323
-7.42928 21.5977 11.4444
-2.68936 22.6467 15.1282
-10.7795 22.6467 9.25038
-7.54346 22.6467 11.6015
-2.81523 23.5241 15.3015
-2.80693 23.4478 15.29
-2.79862 23.3715 15.2786
-2.79032 23.2952 15.2672
-2.78202 23.219 15.2557
-2.77372 23.1427 15.2443
-2.76542 23.0664 15.2329
-2.75711 22.9901 15.2215
-2.74881 22.9139 15.21
-2.74051 22.8376 15.1986
-2.73221 22.7613 15.1872
-2.7239 22.685 15.1758
-2.7156 22.6088 15.1643
-2.7073 22.5325 15.1529
-2.699 22.4562 15.1415
-2.6907 22.3799 15.1301
-2.68239 22.3036 15.1186
-2.67409 22.2274 15.1072
-2.66579 22.1511 15.0958
-2.65749 22.0748 15.0843
-2.64918 21.9985 15.0729
-2.64088 21.9223 15.0615
-2.63258 21.846 15.0501
-2.62428 21.7697 15.0386
-2.61598 21.6934 15.0272
-2.60767 21.6172 15.0158
-2.59937 21.5409 15.0044
-2.59107 21.4646 14.9929
-2.58277 21.3883 14.9815
-2.57446 21.3121 14.9701
-2.56616 21.2358 14.9586
-2.55786 21.1595 14.9472
-2.54956 21.0832 14.9358
-2.54126 21.007 14.9244
-2.53295 20.9307 14.9129
-2.52465 20.8544 14.9015
-2.51635 20.7781 14.8901
-10.9054 23.5241 9.42362
-10.8971 23.4478 9.41219
-10.8888 23.3715 9.40076
-10.8805 23.2952 9.38934
-10.8722 23.219 9.37791
-10.8639 23.1427 9.36648
-10.8556 23.0664 9.35505
-10.8473 22.9901 9.34363
-10.839 22.9139 9.3322
-10.8307 22.8376 9.32077
-10.8224 22.7613 9.30935
-10.8141 22.685 9.29792
-10.8058 22.6088 9.28649
-10.7975 22.5325 9.27507
-10.7892 22.4562 9.26364
-10.7808 22.3799 9.25221
-10.7725 22.3036 9.24078
-10.7642 22.2274 9.22936
-10.7559 22.1511 9.21793
-10.7476 22.0748 9.2065
-10.7393 21.9985 9.19508
-10.731 21.9223 9.18365
-10.7227 21.846 9.17222
-10.7144 21.7697 9.1608
-10.7061 21.6934 9.14937
-10.6978 21.6172 9.13794
-10.6895 21.5409 9.12651
-10.6812 21.4646 9.11509
-10.6729 21.3883 9.10366
-10.6646 21.3121 9.09223
-10.6563 21.2358 9.08081
-10.648 21.1595 9.06938
-10.6397 21.0832 9.05795
-10.6314 21.007 9.04652
-10.6231 20.9307 9.0351
-10.6148 20.8544 9.02367
-10.6065 20.7781 9.01224
-7.66932 23.5241 11.7748
-7.66102 23.4478 11.7633
-7.65272 23.3715 11.7519
-7.64441 23.2952 11.7405
-7.63611 23.219 11.729
-7.62781 23.1427 11.7176
-7.61951 23.0664 11.7062
-7.61121 22.9901 11.6948
-7.6029 22.9139 11.6833
-7.5946 22.8376 11.6719
-7.5863 22.7613 11.6605
-7.578 22.685 11.6491
-7.56969 22.6088 11.6376
-7.56139 22.5325 11.6262
-7.55309 22.4562 11.6148
-7.54479 22.3799 11.6033
-7.53649 22.3036 11.5919
-7.52818 22.2274 11.5805
-7.51988 22.1511 11.5691
-7.51158 22.0748 11.5576
-7.50328 21.9985 11.5462
-7.49497 21.9223 11.5348
-7.48667 21.846 11.5234
-7.47837 21.7697 11.5119
-7.47007 21.6934 11.5005
-7.46177 21.6172 11.4891
-7.45346 21.5409 11.4777
-7.44516 21.4646 11.4662
-7.43686 21.3883 11.4548
-7.42856 21.3121 11.4434
-7.42025 21.2358 11.4319
-7.41195 21.1595 11.4205
-7.40365 21.0832 11.4091
-7.39535 21.007 11.3977
-7.38705 20.9307 11.3862
-7.37874 20.8544 11.3748
-7.37044 20.7781 11.3634
-2.50805 20.7018 14.8787
-10.5982 20.7018 9.00082
-7.36214 20.7018 11.352
-1.91298 16.4204 14.0596
-1.92128 16.4967 14.071
-1.92958 16.573 14.0825
-1.93788 16.6492 14.0939
-1.94619 16.7255 14.1053
-1.95449 16.8018 14.1168
-1.96279 16.8781 14.1282
-1.97109 16.9543 14.1396
-1.9794 17.0306 14.151
-1.9877 17.1069 14.1625
-1.996 17.1832 14.1739
-2.0043 17.2595 14.1853
-2.0126 17.3357 14.1967
-2.02091 17.412 14.2082
-2.02921 17.4883 14.2196
-2.03751 17.5646 14.231
-2.04581 17.6408 14.2424
-2.05412 17.7171 14.2539
-2.06242 17.7934 14.2653
-2.07072 17.8697 14.2767
-2.07902 17.9459 14.2882
-2.08732 18.0222 14.2996
