ply
format ascii 1.0
comment Created by Open3D
element vertex 1837
property double x
property double y
property double z
end_header
-0.489436 -1.1265 8.09162
-0.458916 -1.13142 8.04433
-0.616655 -1.23359 8.28874
-0.571655 -1.08291 8.21901
-0.578079 -1.31938 8.22897
-0.475688 -1.23112 8.07032
-0.402594 -1.21273 7.95706
-0.520616 -1.52579 8.13993
-0.420288 -1.16066 7.98448
-1.49797 -0.988934 8.05773
-1.54023 -0.967057 8.03045
-1.36464 -0.909284 8.14378
-1.47087 -1.06109 8.07522
-1.26671 -0.891612 8.20698
-1.51714 -0.941807 8.04536
-1.61866 -1.4363 7.97984
-1.4552 -1.31382 8.08533
-1.50664 -1.18866 8.05213
-1.47184 -1.28642 8.07459
-1.5036 -1.23829 8.0541
-1.57782 -1.20852 8.00619
-1.09689 -1.30286 7.506
-1.13398 -1.23966 7.48206
-1.22314 -1.52483 7.42452
-1.24798 -1.33377 7.40848
-1.11405 -1.34377 7.49492
-1.21394 -1.4168 7.43045
-1.10724 -0.981414 7.49931
-0.933848 -0.878567 7.61122
-0.991743 -1.0316 7.57386
-0.861819 -1.05145 7.65771
-0.914 -1.00984 7.62403
-1.0181 -0.945333 7.55685
-1.49127 -1.53394 7.9162
-1.4543 -1.53394 7.97207
-1.42249 -1.53394 7.92052
-1.20425 -1.53394 8.1064
-1.10728 -1.53394 8.0041
-1.227 -1.53394 8.14381
-1.17205 -1.53394 7.60895
-1.17445 -1.53394 7.56405
-1.3523 -1.53394 7.72839
-1.43405 -1.53394 7.75756
-1.16468 -1.53394 7.53425
-1.62264 -1.53394 7.91105
-1.16959 -0.756598 7.45907
-1.30974 -0.642671 7.36862
-0.984184 -0.580881 7.57874
-1.13333 -0.585959 7.48248
-1.02446 -0.580175 7.68288
-1.07566 -0.580175 7.53864
-1.50808 -0.664336 8.0512
-1.34818 -0.606159 8.1544
-1.63433 -0.692164 7.96973
-1.67384 -0.673671 7.94422
-1.42355 -0.580175 8.06342
-1.22948 -0.580175 8.10456
-1.43727 -0.731636 7.93585
-1.47795 -0.796137 7.90959
-1.29883 -0.683158 8.0252
-1.18968 -0.667567 8.09564
-1.06321 -0.696138 7.66222
-0.942119 -0.659961 7.74038
-1.338 -0.798883 7.48487
-1.177 -0.758445 7.58879
-1.24503 -0.819457 7.67832
-1.24473 -0.819457 7.67046
-1.38992 -0.819457 7.66645
-1.26291 -0.819457 7.91596
-1.34766 -0.819457 7.87796
-1.11798 -0.819457 8.0092
-0.997901 -0.807189 7.94673
-1.06887 -0.628508 8.05669
-1.42598 -0.610251 7.53917
-1.54594 -0.719601 7.72503
4.37054 -0.823451 1.80128
4.64077 -0.976264 1.38258
4.39046 -0.775902 1.77042
4.55553 -0.81663 1.51466
4.44726 -0.78862 1.68242
4.62605 -1.08194 1.40539
4.38281 -0.867564 1.78227
4.54585 -0.936552 1.52965
4.6609 -0.678096 1.3514
4.72591 -0.865014 1.25066
4.06846 -0.987438 2.26934
4.1704 -1.21675 2.1114
4.25891 -1.30615 1.97426
4.43181 -1.35339 1.70635
4.42524 -1.34669 1.71653
4.17402 -1.38065 2.10578
4.17373 -1.37559 2.10623
4.09896 -1.11499 2.22208
4.15836 -1.4006 2.13004
4.14564 -1.14378 2.14976
3.52484 -0.892874 1.97161
3.62842 -0.990477 1.81112
3.54064 -1.32641 1.94713
3.68189 -1.51095 1.72827
3.58812 -1.17014 1.87357
3.76928 -0.992628 1.59287
3.93638 -1.20275 1.33397
3.79969 -1.3379 1.54576
3.94191 -1.19043 1.3254
3.95983 -1.47807 1.29763
3.74826 -0.86965 1.62544
3.87992 -0.946108 1.42144
3.77199 -0.694301 1.58867
4.35295 -1.09595 0.688511
4.39597 -0.691847 0.621864
3.69702 -0.703353 1.70483
3.75975 -0.849657 1.60764
3.87505 -0.936719 1.42899
4.42502 -0.850697 0.576845
3.86496 -0.828663 1.44463
4.67556 -1.53394 0.773215
4.33286 -1.53394 1.75497
4.31521 -1.53394 1.42123
4.11151 -1.53394 2.0284
4.48958 -1.53394 1.27704
4.17714 -1.53394 1.75054
4.40163 -1.53394 1.62444
3.58503 -1.53394 1.98693
3.93045 -1.53394 1.65239
3.77245 -1.53394 1.94801
3.91987 -1.53394 1.46966
3.98065 -1.53394 1.33524
4.02073 -1.53394 1.8501
4.17653 -1.53394 1.68839
3.9979 -0.677629 1.9873
4.05865 -0.677629 2.13466
4.20362 -0.677629 1.54415
4.01892 -0.677629 1.83282
4.22377 -0.677629 1.58882
4.15403 -0.677629 2.1005
3.94875 -0.677629 2.21254
4.35059 -0.677629 1.10897
4.25383 -0.677629 0.865543
4.18142 -0.677629 0.964011
4.21292 -0.677629 1.2413
4.33951 -0.677629 0.724885
4.37171 -0.677629 1.32867
4.20467 -0.677629 1.39199
4.73371 -1.09326 0.692728
4.76394 -1.13672 0.71224
4.85701 -1.12558 0.772303
4.82668 -1.38641 0.75273
4.80385 -1.43215 0.737998
4.47377 -1.47887 0.524961
3.89099 -1.22305 2.26548
3.93302 -1.02483 2.29261
3.93367 -1.09717 2.29303
3.72723 -1.07638 2.15979
3.65174 -0.904576 2.11107
3.65359 -0.959783 2.11226
0.0533364 -0.739839 8.49051
-0.0111096 -0.707036 8.59037
0.343716 -0.645968 8.04059
0.119083 -0.748048 8.38864
0.157554 -1.0313 8.32903
-0.12939 -0.666761 8.77363
0.307341 -0.962765 8.09695
0.145503 -0.727396 8.3477
-0.143952 -0.597083 8.7962
0.111204 -0.859909 8.40085
-0.0799302 -1.39119 8.697
-0.190758 -1.26201 8.86872
-0.00669327 -0.948992 8.58352
0.0521776 -1.35057 8.49231
-0.17875 -1.31206 8.85011
0.031028 -1.29645 8.52508
-0.00273898 -0.985391 8.5774
-0.147341 -1.05902 8.80145
0.048449 -1.36025 8.49808
0.05639 -1.34597 8.48578
-0.552981 -1.50008 8.18948
-0.471566 -1.46355 8.06333
-0.746613 -1.25244 8.4895
-0.748262 -1.27498 8.49205
-0.576417 -1.0292 8.22579
-0.668984 -0.882935 8.36922
-0.573005 -1.01167 8.2205
-0.602231 -0.947089 8.26579
-0.690778 -1.51218 8.40298
-0.60251 -0.999435 8.26622
-0.177616 -0.60373 7.60787
-0.517232 -0.7476 8.13409
-0.526068 -0.799842 8.14778
-0.62866 -0.754672 8.30674
-0.49728 -0.846329 8.10317
-0.458447 -0.896457 8.043
-0.296046 -0.68343 7.79137
-0.366818 -0.869152 7.90103
-0.274769 -0.673605 7.75841
-0.689618 -0.681251 8.40119
-0.141791 -1.53394 8.27143
0.150687 -1.53394 7.91122
0.0114431 -1.53394 7.9938
-0.00802374 -1.53394 8.11824
-0.1755 -1.53394 8.65433
0.248914 -1.53394 8.01034
0.0510802 -1.53394 8.02495
-0.340863 -1.53394 8.60658
-0.476495 -1.53394 8.32461
-0.512214 -1.53394 8.43419
-0.606349 -1.53394 8.4172
-0.261007 -1.53394 8.75038
-0.351411 -1.53394 8.43033
-0.358146 -1.53394 8.15711
0.0218605 -0.580175 8.18027
-0.179637 -0.580175 8.26241
-0.26825 -0.580175 8.51633
-0.270433 -0.580175 8.75542
-0.0354308 -0.580175 8.42633
-0.377869 -0.580175 8.6643
-0.137475 -0.580175 8.77496
-0.159421 -0.580175 8.01404
0.0323439 -0.580175 8.03477
-0.292173 -0.580175 8.15104
-0.181368 -0.580175 8.20551
-0.146602 -0.580175 8.1889
-0.104828 -0.580175 8.16543
-0.0922611 -0.580175 8.06636
0.120617 -0.676195 7.7797
0.307963 -1.15226 7.90061
0.214768 -1.01007 7.84047
0.13988 -0.98527 7.79213
0.369264 -1.29131 7.94018
0.366493 -1.33325 7.93839
0.0218045 -1.4073 7.71593
-0.116649 -1.35187 7.62657
0.0612237 -1.2985 7.74137
0.0488034 -1.39526 7.73335
0.104897 -1.28973 7.76956
0.172852 -1.33557 7.81341
-0.390209 -1.14395 8.77268
-0.341316 -1.30189 8.80423
-0.264198 -0.717076 8.854
-0.280925 -1.41707 8.84321
-0.474007 -1.37404 8.71859
-0.469504 -1.29099 8.7215
-0.506992 -0.659135 8.69731
-0.425032 -0.679837 8.7502
-0.652139 -1.04157 8.60363
-0.656015 -0.776755 8.60113
-0.474112 -0.907195 8.71853
-0.506745 -0.725 8.69747
0.940546 -1.04672 7.11583
0.931608 -1.01024 7.12968
0.96899 -1.04142 7.07176
0.927018 -0.585917 7.1368
0.97508 -0.853329 7.06233
0.95555 -0.783458 7.09259
0.796042 -1.02924 7.33973
0.843202 -1.53087 7.26666
0.85229 -1.2176 7.25258
0.863851 -1.48328 7.23467
0.820092 -1.33618 7.30247
0.844758 -0.992401 7.26425
0.273371 -0.827418 6.98548
0.293481 -1.3147 6.95432
0.293523 -1.52358 6.95426
0.289407 -1.30083 6.96064
0.350006 -0.989676 6.86674
0.372876 -1.15808 6.83131
0.342123 -0.660487 6.87896
0.478246 -0.8589 6.66804
0.449905 -0.635321 6.71196
0.475658 -0.868859 6.67205
0.382356 -0.912084 6.81662
0.473694 -0.944239 6.6751
0.881541 -1.53394 6.9717
0.777876 -1.53394 7.21241
0.751698 -1.53394 7.09011
0.858304 -1.53394 6.9791
0.417024 -1.53394 6.88152
0.63923 -1.53394 7.19005
0.422824 -1.53394 7.02668
0.562239 -1.53394 7.10764
0.71682 -0.580175 7.17598
0.574426 -0.580175 7.17209
0.775293 -0.580175 7.03135
0.604311 -0.580175 7.15042
0.549205 -0.580175 6.89552
0.38723 -0.580175 6.8168
0.538716 -0.580175 6.83134
0.659467 -0.580175 6.75966
0.898913 -1.23001 6.90735
0.934957 -1.02794 6.93061
0.832221 -1.13144 6.86431
0.975591 -1.00609 6.95684
0.854157 -1.10089 6.87846
0.918388 -0.587815 6.91992
0.883365 -0.685703 6.89731
0.811149 -0.670935 6.85071
0.791671 -1.10658 6.83814
0.85979 -0.582464 6.8821
0.749129 -1.12027 6.81068
0.585583 -1.2709 6.70513
0.627353 -1.06917 6.73208
0.511325 -1.41115 6.6572
0.694791 -1.40322 6.77561
0.760259 -1.47698 6.81786
0.920403 -1.46195 6.92122
0.576245 -1.40721 6.6991
0.742979 -1.08513 6.80671
0.612048 -1.12159 6.72221
0.658025 -1.08823 7.25116
0.723535 -1.02866 7.29344
0.592188 -1.44323 7.20867
0.73083 -0.702923 7.29814
0.608296 -0.990589 7.21906
0.758859 -1.18485 7.31623
0.608862 -0.935453 7.21943
0.674645 -1.25132 7.26188
0.647747 -0.909582 7.24452
0.67327 -0.966372 7.261
0.308548 -0.980301 7.02561
0.357497 -0.692333 7.0572
0.703298 -0.617837 7.28038
0.46735 -0.980305 7.1281
0.497799 -0.858652 7.14775
0.552077 -1.0095 7.18278
0.373466 -0.654336 7.0675
0.46689 -0.807619 7.1278
0.327526 -0.857013 7.03785
0.317647 -0.805934 7.03148
0.114916 -0.414135 5.20128
-0.332725 -0.832535 4.91238
0.57049 -0.539673 5.49531
-0.0156472 -0.828785 5.11702
-0.364136 -0.564069 4.89211
0.252031 -0.349691 5.28978
-0.39171 -0.728165 4.87431
1.04514 -0.256184 5.80165
-0.308608 -0.32728 4.92794
1.03858 -0.29073 5.79742
1.27629 -1.14602 5.95083
1.11286 -0.497322 5.84536
0.918806 -0.587406 5.72011
1.20522 -0.563656 5.90496
1.07055 -0.822434 5.81805
1.3808 -1.07707 6.01828
1.01353 -0.614832 5.78125
1.00785 -1.17359 5.77758
0.851622 -0.839686 5.67675
0.427824 -1.44093 5.40324
0.598849 -0.730672 6.67503
0.406836 -1.06595 6.55111
0.420716 -1.19174 6.56007
0.556931 -0.486278 6.64798
-0.0178419 -1.20934 6.27702
0.193042 -1.01395 6.41313
0.232097 -1.38049 6.43833
0.40933 -1.50166 6.55272
0.617852 -0.394191 6.6873
0.709599 -0.983755 6.74651
-1.20927 -0.879225 5.50808
0.565143 -0.250901 6.65328
-0.13184 -0.689229 6.20345
0.566493 -0.301334 6.65415
-0.0236416 -0.447204 6.27328
-0.659584 -0.643606 5.86284
-0.10832 -0.793837 6.21863
-0.272581 -0.793818 6.11261
-0.410415 -0.80265 6.02366
-0.0161232 -0.55184 6.27813
0.342718 -1.53394 5.71734
-0.207868 -1.53394 4.99315
0.0496595 -1.53394 5.16837
-0.352628 -1.53394 5.3412
0.133958 -1.53394 5.46144
0.222018 -1.53394 5.32452
0.094134 -1.53394 5.50865
0.825082 -1.53394 6.64282
0.868051 -1.53394 6.27372
0.150348 -1.53394 5.98444
0.428279 -1.53394 6.23279
0.133998 -1.53394 6.28844
-0.0959545 -1.53394 6.1082
0.520436 -1.53394 6.09673
0.70396 -0.227482 6.1423
0.362382 -0.227482 5.41206
0.259276 -0.227482 5.59
1.01051 -0.227482 6.30552
-0.0785764 -0.227482 5.13346
0.0428456 -0.227482 5.65015
0.503622 -0.227482 5.49328
-0.414802 -0.227482 5.19625
-0.595462 -0.227482 5.80004
-0.190242 -0.227482 5.8348
-0.178984 -0.227482 5.69813
-0.560744 -0.227482 5.66887
-0.0620268 -0.227482 5.67125
-0.951844 -0.227482 5.4278
-0.899453 -0.347574 4.78874
-0.999554 -0.366582 4.94384
-0.805885 -1.32416 4.64376
-1.00435 -1.16293 4.95126
-1.05868 -1.32796 5.03546
-1.27201 -0.881466 5.36599
1.29913 -0.794944 6.22658
1.40059 -1.47962 6.06937
1.22891 -1.31816 6.33537
1.27023 -0.568479 6.27135
1.11421 -0.826776 6.5131
1.21019 -0.557024 6.36438
-2.0751 0.370221 7.68525
-2.07755 0.280341 7.68367
-2.52431 0.493656 7.39533
-2.31382 0.291831 7.53118
-2.60776 0.438179 7.34148
-2.8145 0.560025 7.20805
-2.43104 0.35478 7.45553
-2.17417 0.456399 7.62131
-2.24658 0.235684 7.57458
-2.45135 0.432521 7.44242
-2.66407 -0.0100384 7.30513
-2.70525 0.0617503 7.27855
-2.7368 -0.0785236 7.25819
-2.5935 -0.0280259 7.35068
-2.71148 0.311407 7.27453
-2.49822 -0.140839 7.41217
-2.7734 -0.0177937 7.23457
-2.47852 0.187446 7.42488
-2.67738 0.112083 7.29654
-2.55752 0.1147 6.91455
-2.43244 0.0814462 6.99528
-2.30652 0.0940748 7.07655
-2.56289 0.076712 6.91108
-2.61719 0.0598879 6.87604
-2.43694 -0.00591945 6.99238
-2.32851 0.279735 7.06236
-2.44635 0.0206756 6.9863
-2.57966 0.318542 6.90026
-2.06472 0.366566 7.2326
-1.84854 0.350538 7.37213
-2.07707 0.310916 7.22463
-2.2792 0.536502 7.09417
-1.7956 0.460628 7.40629
-1.98052 0.259021 7.28694
-2.12078 0.422116 7.19642
-2.117 0.434764 7.19886
-2.34987 0.466983 7.04857
-2.18128 0.257145 7.15738
-2.03954 -0.149095 7.59826
-2.29919 -0.149095 7.49543
-2.09215 -0.149095 7.65342
-2.14443 -0.149095 7.46027
-2.21379 -0.149095 7.5865
-2.44593 -0.149095 7.13195
-2.69828 -0.149095 7.06228
-2.68857 -0.149095 7.19939
-2.28332 -0.149095 7.10859
-2.36677 -0.149095 7.27613
-2.24919 0.56941 7.46016
-2.15787 0.56941 7.59755
-2.56105 0.56941 7.18877
-2.77225 0.56941 7.1673
-2.27267 0.56941 7.47329
-2.20209 0.56941 7.32457
-2.17192 0.56941 7.23958
-2.22452 0.56941 7.31872
-1.90563 0.56941 7.34884
-1.97092 0.56941 7.68049
-1.92145 0.362093 7.61197
-1.94008 0.348521 7.64084
-1.95634 0.236953 7.66603
-1.94377 -0.0365283 7.64655
-1.87418 -0.0613177 7.53873
-1.82215 0.0815102 7.45812
-2.74089 -0.126038 7.04878
-2.79991 0.253151 7.14022
-2.76084 0.289912 7.07968
-2.68587 0.289491 6.96354
-2.74938 0.362329 7.06194
-2.77939 0.502634 7.10843
1.57875 0.128482 6.12697
1.8559 -0.32114 5.69755
1.67149 -0.0974146 5.98329
1.66408 -0.317736 5.99476
1.75861 0.163158 5.8483
1.75992 -0.615483 5.84627
1.79248 -0.617762 5.79581
1.82151 -0.323278 5.75085
1.75029 -0.155266 5.86119
1.81127 -0.0593116 5.7667
1.64797 -1.12947 6.01973
1.51036 -0.623055 6.23295
1.65408 -0.728107 6.01026
1.60398 -0.657187 6.08789
1.62999 -0.885524 6.04759
1.60189 -1.2508 6.09112
1.6133 -1.30692 6.07345
1.5584 -0.551612 6.15851
1.53018 -1.20963 6.20224
1.60099 -0.914614 6.09252
1.27043 -1.3538 6.06363
1.43339 -1.43139 5.81114
1.43944 -1.13417 5.80176
1.2829 -0.468846 6.04432
1.26807 -0.37461 6.06729
1.44339 -1.29224 5.79564
1.37623 -0.942923 5.89971
1.28832 -1.19526 6.03591
1.24336 0.0368611 6.10557
1.24088 -0.909769 6.10942
1.39826 -0.390665 5.86556
1.47284 -0.142213 5.75002
1.34705 0.206839 5.94492
1.43921 -0.374429 5.80212
1.26621 0.153604 6.07017
1.56993 -0.173438 5.59958
1.46265 -0.599789 5.7658
1.38705 -0.24924 5.88294
1.57619 -0.117029 5.58988
1.5799 -0.244162 5.58413
1.60334 -1.53394 5.94429
1.42001 -1.53394 5.9901
1.46313 0.269247 6.15336
1.56004 0.269247 5.66028
1.78577 -0.138726 5.55329
1.82314 -0.826925 5.5774
1.87861 0.128831 5.6132
1.68471 -0.860817 5.48806
1.72761 -1.14183 5.51575
1.68484 -0.791687 5.48814
1.3776 -0.936435 6.2073
1.45746 -0.173935 6.25884
1.38273 -1.23638 6.21061
1.35509 -0.425607 6.19277
1.28253 -0.571545 6.14594
1.39737 -0.052759 6.22006
-4.00675 0.585431 4.50704
-4.33167 0.502423 5.01048
-4.09641 0.491976 4.64596
-4.1735 0.499201 4.7654
-4.17594 0.582261 4.76919
-4.09783 0.582913 4.64816
-4.28568 0.450595 4.93921
-4.10587 0.525659 4.66061
-4.19364 0.589742 4.7966
-4.20795 0.463444 4.81878
-4.04253 0.321978 4.56247
-3.93784 0.435709 4.40027
-3.95492 0.351942 4.42673
-4.0647 0.439484 4.59683
-4.04592 0.313944 4.56773
-3.99183 0.521514 4.48391
-4.09394 0.459312 4.64212
-4.09377 0.443837 4.64186
-3.98337 0.290562 4.4708
-4.00206 0.427084 4.49977
-3.82617 0.299231 4.83116
-3.68615 0.574036 4.6142
-3.74479 0.27795 4.70507
-3.74967 0.413426 4.71262
-3.73536 0.298838 4.69046
-3.75685 0.423001 4.72376
-3.65995 0.490098 4.57361
-3.67503 0.574373 4.59698
-3.81132 0.42484 4.80815
-3.76073 0.386162 4.72976
-3.69572 0.583537 4.62904
-4.03382 0.508006 5.15289
-3.87385 0.628179 4.90504
-4.05273 0.560807 5.1822
-3.8748 0.479781 4.90651
-4.01472 0.485096 5.12331
-3.91678 0.626201 4.97156
-3.7475 0.54749 4.70926
-4.00697 0.46469 5.1113
-3.96185 0.465437 5.04139
-4.06056 0.252925 4.79382
-4.25566 0.252925 4.9614
-3.97347 0.252925 4.6322
-4.12553 0.252925 4.89265
-4.20666 0.252925 5.02336
-3.98801 0.252925 4.47991
-3.93469 0.252925 4.53106
-4.29736 0.252925 5.03955
-3.69081 0.252925 4.47432
-3.84137 0.252925 4.79993
-3.84166 0.252925 4.57657
-3.90261 0.252925 4.58148
-3.74447 0.252925 4.4142
-3.87963 0.252925 4.4436
-3.85221 0.252925 4.74103
-3.81094 0.252925 4.42286
-4.12751 0.647701 4.78079
-3.78926 0.647701 4.41696
-3.83148 0.647701 4.45795
-3.82118 0.647701 4.37207
-3.8251 0.647701 4.45714
-3.84996 0.647701 4.36589
-3.9049 0.647701 4.56318
-4.0508 0.647701 4.79332
-4.18143 0.647701 5.08397
-3.97125 0.647701 4.82401
-4.16912 0.647701 4.97479
-3.85944 0.647701 4.85988
-3.93351 0.647701 4.86292
-3.88092 0.647701 4.88139
-3.98521 0.647701 4.81201
-3.93439 0.647701 4.88236
-4.23015 0.484132 5.08412
-4.20564 0.476875 5.09993
-4.30593 0.414582 5.03521
-4.11697 0.304603 5.15716
-4.2222 0.400311 5.08925
-4.20022 0.332092 5.10344
-3.84749 0.392879 4.34046
-3.86517 0.465933 4.32906
-3.77915 0.455005 4.38457
-3.65824 0.48457 4.4626
-3.70026 0.548587 4.43549
-3.72755 0.573293 4.41788
-0.464572 0.571505 8.66782
-0.578024 0.279225 8.5946
-0.208509 0.523584 8.83308
-0.68361 0.581054 8.52645
-0.190667 0.404191 8.8446
-0.393929 0.274611 8.71341
-0.518312 0.314297 8.63314
-0.41208 0.251287 8.7017
-0.573291 0.362826 8.59765
-0.390666 0.2445 8.71552
-0.87252 0.237353 8.40453
-0.854406 0.0725825 8.41622
-0.938653 0.377603 8.36185
-0.836825 -0.036737 8.42757
-0.610494 0.184353 8.57364
-0.829529 0.363863 8.43228
-0.728161 -0.0383898 8.4977
-0.92875 0.131938 8.36824
-0.760308 0.0526127 8.47695
-0.90826 0.10223 8.38146
-0.754982 0.501907 8.06749
-0.382948 -0.107696 8.3076
-0.718884 0.232667 8.09078
-0.688163 0.218797 8.11061
-0.694315 0.475348 8.10664
-0.544248 0.304505 8.20349
-0.707205 0.056285 8.09832
-0.731528 0.211833 8.08262
-0.630819 0.154777 8.14762
-0.744546 0.227444 8.07422
-0.44407 0.354139 8.26815
-0.417497 0.431447 8.2853
-0.0109991 0.352858 8.54765
-0.215014 0.249334 8.41598
-0.354893 0.513244 8.3257
-0.0978587 0.244953 8.49159
-0.408796 0.547214 8.29091
-0.0547822 0.428588 8.51939
-0.20464 0.376243 8.42268
-0.405024 0.516425 8.29335
-0.21038 -0.154994 8.72542
-0.158003 -0.154994 8.66058
-0.716718 -0.154994 8.45676
-0.172539 -0.154994 8.71914
-0.82441 -0.154994 8.24908
-0.754765 -0.154994 8.07008
-0.753634 -0.154994 8.29552
-0.512273 -0.154994 8.27036
-0.526205 0.598934 8.49005
-0.30883 0.598934 8.72238
-0.719699 0.598934 8.39519
-0.704573 0.598934 8.46764
-0.100703 0.598934 8.61313
-0.103081 0.598934 8.72821
-0.250121 0.598934 8.75281
-0.440875 0.598934 8.49011
-0.153271 0.252839 8.81063
-0.0893851 0.515304 8.71164
-0.0980558 0.440074 8.72508
-0.0588412 0.0222612 8.66432
0.00319196 -0.0145181 8.5682
-0.0876197 0.000697857 8.70891
-0.911248 -0.116785 8.27884
-0.867595 0.0474102 8.21121
-0.876091 0.155006 8.22437
-0.813388 0.434359 8.12722
-0.790898 0.536244 8.09237
-0.921803 0.570973 8.2952
-2.46236 -0.669952 7.37273
-2.56883 -0.644419 7.30402
-2.69441 -0.740956 7.22297
-2.36522 -0.953279 7.43543
-2.71813 -0.687261 7.20766
-2.53713 -0.822027 7.32447
-2.58871 -0.792599 7.29119
-2.72772 -0.725077 7.20147
-2.43917 -0.98301 7.3877
-2.65063 -1.11536 7.25122
-2.78139 -1.51298 7.16683
-2.62438 -1.13063 7.26816
-2.82236 -1.08952 7.14039
-2.68938 -1.3891 7.22622
-2.83132 -0.739057 7.13461
-2.77682 -1.03703 7.16978
-2.80741 -1.13738 7.15004
-2.66569 -1.40717 7.24151
-2.28895 -1.03274 6.72277
-2.41412 -1.3108 6.64199
-2.37646 -1.05819 6.66629
-2.50801 -1.05183 6.58139
-2.4169 -1.13155 6.64019
-2.33603 -1.37065 6.69239
-2.36114 -1.02126 6.67618
-2.4284 -1.01993 6.63277
-2.27684 -1.34153 6.73059
-2.04941 -1.03805 6.87737
-2.10547 -0.97959 6.84119
-2.34147 -0.773641 6.68887
-2.21293 -0.830574 6.77183
-2.10367 -0.990098 6.84235
-2.25919 -0.994301 6.74198
-2.42292 -0.731949 6.63631
-2.03594 -0.886823 6.88607
-2.35854 -0.700929 6.67786
-2.67054 -1.53394 7.11553
-2.76968 -1.53394 7.09357
-2.63235 -1.53394 7.26107
-2.41365 -1.53394 7.24569
-2.23363 -1.53394 7.2143
-2.28562 -1.53394 7.24776
-2.62107 -1.53394 7.0504
-2.47386 -1.53394 6.89872
-2.54408 -1.53394 6.90864
-2.57352 -1.53394 6.88444
-2.48257 -1.53394 6.89064
-2.77882 -1.53394 7.09398
-2.66146 -0.584405 7.06978
-2.58174 -0.584405 7.05816
-2.70726 -0.584405 7.1517
-2.61528 -0.584405 7.23675
-2.57357 -0.584405 6.92709
-2.76284 -0.584405 7.16866
-2.37537 -0.584405 7.24649
-2.16957 -0.584405 7.07019
-2.37555 -0.584405 6.96681
-2.21156 -0.584405 7.20657
-2.42184 -0.584405 7.03489
-2.39177 -0.584405 7.06703
-2.32412 -0.826639 7.39208
-2.276 -1.30139 7.31752
-2.23554 -0.780306 7.25484
-2.33177 -0.802838 7.40393
-2.19362 -0.980805 7.18988
-2.26171 -1.0601 7.29539
-2.21269 -0.636244 7.21943
-2.26752 -1.24078 7.30438
-2.20922 -1.07607 7.21406
-2.19851 -1.1005 7.19745
-2.16771 -1.08018 7.14973
-2.18414 -1.446 7.17519
-2.00927 -1.31119 6.90424
-2.22618 -1.22571 7.24033
-2.16333 -1.27297 7.14294
-2.17299 -1.49705 7.15791
-2.14849 -1.09889 7.11995
-2.1385 -1.37936 7.10448
-2.03253 -1.40559 6.94029
-2.06917 -1.13956 6.99706
-2.78978 -0.984835 7.00634
-2.70807 -1.10276 6.87972
-2.789 -1.41069 7.00512
-2.76359 -0.852783 6.96576
-2.82327 -1.48956 7.05822
-2.73377 -1.42274 6.91955
-2.85024 -1.32303 7.10001
-2.69985 -1.18024 6.867
-2.76777 -1.46718 6.97223
-2.76502 -1.32196 6.96797
-2.58571 -0.600965 6.69014
-2.6136 -0.680805 6.73335
-2.52978 -0.649975 6.60348
-2.53639 -0.772414 6.61373
-2.52891 -0.860457 6.60213
-2.67267 -0.965204 6.82488
-2.69617 -0.713726 6.86129
-2.6792 -0.868416 6.83499
-2.68617 -1.05854 6.84579
-2.71699 -0.653217 6.89355
-2.62415 -1.00886 4.12574
-2.93997 -1.07224 3.92191
-3.16495 -0.657111 3.77671
-2.89087 -1.01121 3.9536
-2.91902 -0.694668 3.93543
-3.12348 -0.660255 3.80347
-2.6213 -0.981979 4.12758
-3.03835 -0.839128 3.85842
-2.72695 -0.88028 4.0594
-2.96667 -0.943693 3.90468
-3.17453 -1.46667 3.77053
-3.04979 -1.32616 3.85103
-3.04175 -1.09276 3.85622
-3.18965 -1.20419 3.76077
-3.20068 -1.51337 3.75365
-3.07142 -1.27698 3.83707
-3.42712 -1.10235 3.60751
-3.2318 -1.53222 3.73356
-3.15483 -1.52583 3.78324
-3.14939 -1.21166 3.78675
-3.10243 -1.25899 3.20458
-3.14107 -1.05044 3.17964
-3.15798 -1.15803 3.16873
-3.0343 -1.37285 3.24855
-2.77684 -1.39079 3.41471
-2.80309 -1.42364 3.39777
-3.13858 -0.778521 3.18124
-2.96826 -1.3553 3.29117
-3.15606 -1.13896 3.16996
-3.06019 -0.86104 3.23184
-2.51273 -0.937098 3.58517
-2.39269 -0.994866 3.66264
-2.64541 -0.940245 3.49954
-2.54803 -0.760926 3.56239
-2.63558 -0.829523 3.50588
-2.64704 -0.906495 3.49849
-2.46094 -0.661099 3.61859
-3.06222 -0.701362 3.23053
-2.71958 -0.641729 3.45166
-2.57335 -0.80649 3.54604
-2.62727 -1.53394 3.93574
-2.59892 -1.53394 3.96074
-3.27279 -1.53394 3.65512
-2.61438 -1.53394 3.99665
-2.80323 -1.53394 4.00632
-2.77032 -1.53394 3.45765
-2.93714 -1.53394 3.51582
-2.93999 -1.53394 3.59449
-2.95418 -1.53394 3.62358
-2.9231 -1.53394 3.48368
-3.403 -0.617961 3.53911
-3.0081 -0.617961 3.77693
-2.87067 -0.617961 3.94232
-3.28817 -0.617961 3.48459
-3.09308 -0.617961 3.52704
-2.71468 -0.617961 3.67026
-2.61575 -0.617961 4.01494
-2.73411 -0.617961 3.83519
-2.80657 -0.617961 3.76027
-2.81813 -0.617961 3.57953
-2.58428 -1.10924 4.10678
-2.56257 -0.849602 4.07313
-2.5351 -0.957862 4.03058
-2.49375 -0.864396 3.9665
-2.55942 -1.09683 4.06825
-2.36022 -1.48218 3.75961
-2.50007 -1.20012 3.9763
-2.48943 -1.48921 3.95981
-2.35689 -1.31229 3.75445
-2.47195 -1.17192 3.93272
-3.38724 -1.20462 3.50928
-3.31479 -1.29259 3.39703
-3.43447 -1.04114 3.58247
-3.30815 -1.48084 3.38675
-3.30508 -1.51647 3.38198
-3.40875 -0.643466 3.54261
-3.18632 -1.055 3.19798
-3.36908 -0.74707 3.48115
-3.27894 -0.936269 3.34149
-3.24906 -1.05102 3.29518
-1.83257 -1.10242 2.06827
-1.94693 -0.798535 1.98804
-1.98154 -0.963815 1.96375
-1.85583 -1.06482 2.05195
-1.85767 -0.922145 2.05066
-1.81166 -1.36414 2.08294
-1.7441 -1.15907 2.13034
-1.72864 -1.48009 2.14118
-1.75424 -1.32514 2.12322
-1.77055 -0.995634 2.11178
-2.12159 -0.999021 2.75969
-2.07929 -0.722807 2.78936
-2.11929 -1.13016 2.7613
-2.18472 -1.10933 2.7154
-2.07338 -1.06674 2.79351
-2.17784 -0.743506 2.72023
-2.15578 -0.827715 2.7357
-2.39146 -0.835438 2.57035
-2.28105 -1.06301 2.64781
-2.20895 -0.858944 2.6984
-2.13066 -1.53394 2.24557
-1.83591 -1.53394 2.26206
-1.82835 -1.53394 2.23428
-2.06941 -1.53394 2.34607
-1.99862 -1.53394 2.45933
-2.00982 -1.53394 2.61346
-1.90125 -1.53394 2.39793
-1.83528 -1.53394 2.38406
-1.91362 -0.698008 2.03419
-1.96422 -0.698008 2.23017
-1.81505 -0.698008 2.21081
-1.972 -0.698008 2.09543
-2.27095 -0.698008 2.48815
-2.12782 -0.698008 2.18205
-2.21879 -0.698008 2.38919
-2.02196 -0.698008 2.07948
-2.19498 -0.708704 2.24998
-2.01801 -1.07769 1.99774
-2.15987 -0.707935 2.19994
-2.12434 -1.18456 2.1493
-2.08312 -1.07043 2.09054
-2.11362 -1.06498 2.13402
-2.02608 -0.836081 2.00924
-2.05112 -1.00274 2.04494
-2.13201 -0.914984 2.16023
-1.99332 -0.999435 1.96255
-2.33677 -1.48931 2.45209
-2.33787 -1.34895 2.45364
-2.30419 -1.32165 2.40564
-2.37324 -1.23608 2.50406
-2.27777 -1.50644 2.36798
-2.35516 -1.13548 2.47829
-2.30237 -1.35482 2.40305
-2.24824 -1.40252 2.32589
-2.20564 -1.28163 2.26517
-2.39422 -1.15248 2.53396
-1.77567 -1.19637 2.37539
-1.80918 -1.46306 2.42315
-1.66152 -1.45375 2.2127
-1.8452 -1.32788 2.47449
-1.84691 -1.31322 2.47693
-1.85839 -1.40032 2.49329
-1.7299 -1.24545 2.31015
-1.82468 -1.43135 2.44524
-1.76196 -1.47973 2.35586
-1.65119 -1.09163 2.19796
-1.88773 -0.809785 2.53511
-2.02332 -0.730954 2.72838
-1.9624 -0.896299 2.64154
-1.88398 -1.09491 2.52977
-1.80865 -0.909042 2.42239
-1.85868 -1.10334 2.49371
-1.81133 -0.988653 2.42621
-1.78903 -0.714266 2.39443
-1.87912 -0.876897 2.52285
-1.83675 -0.7678 2.46246
-1.26584 -0.616734 8.04649
-1.1324 -0.654224 8.13261
-1.37224 -0.658571 7.97781
-1.31818 -0.620344 8.01271
-1.32321 -0.679921 8.00946
-1.59102 -0.719784 7.83662
-1.3857 -0.729083 7.96913
-1.38847 -0.815709 7.96734
-1.5141 -0.760601 7.88626
-1.52038 -0.810407 7.8822
-1.22194 -0.667798 7.55978
-1.25824 -0.64765 7.53635
-1.21488 -0.803823 7.56433
-1.3432 -0.815454 7.48151
-1.30813 -0.734582 7.50415
-1.31092 -0.599279 7.50235
-1.21729 -0.628214 7.56278
-1.28839 -0.612637 7.51689
-1.13119 -0.607706 7.61835
-1.10203 -0.604515 7.63717
-1.44383 -0.819457 7.88049
-1.15287 -0.819457 8.06058
-1.1137 -0.819457 7.90602
-1.38365 -0.819457 7.85608
-1.42279 -0.819457 7.91562
-1.36103 -0.819457 7.90563
-1.27173 -0.819457 7.82219
-1.38174 -0.819457 7.87378
-1.29644 -0.819457 7.9824
-1.44844 -0.819457 7.74082
-1.42819 -0.819457 7.59919
-1.36704 -0.819457 7.57713
-1.37229 -0.819457 7.52751
-1.38463 -0.819457 7.49219
-1.44764 -0.819457 7.8018
-1.29739 -0.819457 7.7675
-1.54576 -0.819457 7.77975
-1.2245 -0.819457 7.68095
-1.25171 -0.819457 7.72266
-1.1571 -0.580175 8.0836
-1.5405 -0.580175 7.75114
-1.49687 -0.580175 7.67404
-1.50428 -0.580175 7.82045
-1.27209 -0.580175 8.02006
-1.19651 -0.580175 7.97132
-1.41926 -0.580175 7.74698
-1.3463 -0.580175 7.92945
-1.50382 -0.580175 7.79405
-1.24339 -0.580175 7.80585
-1.18406 -0.580175 7.84258
-1.09167 -0.580175 7.77879
-1.09257 -0.580175 7.69406
-1.09732 -0.580175 7.82322
-1.14683 -0.580175 8.05399
-1.14763 -0.580175 8.04168
-1.08697 -0.580175 7.87959
-1.04338 -0.580175 7.78408
-0.988757 -0.580175 7.7751
-1.06507 -0.710056 8.05081
-1.00892 -0.66595 7.96381
-1.11653 -0.642257 8.13054
-1.05078 -0.682305 8.02867
-0.915733 -0.798035 7.81942
-0.9964 -0.75055 7.94441
-0.88801 -0.760336 7.77647
-1.04553 -0.766763 8.02053
-1.50678 -0.730542 7.66436
-1.55654 -0.651024 7.74145
-1.58513 -0.757429 7.78575
-1.55837 -0.782235 7.74429
-1.39328 -0.651434 7.4885
-1.49013 -0.585171 7.63855
-1.40996 -0.658902 7.51433
-1.57924 -0.607805 7.77662
0.787371 -0.933547 7.35317
0.732226 -0.875385 7.43861
0.55175 -0.870098 7.71825
0.76579 -0.659004 7.38661
0.56037 -0.755338 7.70489
0.653411 -1.02139 7.56073
0.501623 -0.827042 7.79592
0.476642 -0.76556 7.83462
0.64747 -0.919789 7.56994
0.765382 -0.760203 7.38724
0.591247 -1.42957 7.65705
0.459217 -1.07028 7.86162
0.504816 -1.43456 7.79097
0.42479 -1.0894 7.91496
0.411452 -0.953868 7.93563
0.453981 -0.917648 7.86973
0.528511 -1.12138 7.75426
0.511643 -1.02281 7.78039
0.430685 -1.36359 7.90583
0.452922 -1.21696 7.87138
0.00154067 -1.46154 7.37687
-0.106748 -1.1162 7.54466
0.00882426 -1.01282 7.36559
-0.110982 -1.31441 7.55122
-0.132996 -0.681348 7.58533
0.00348855 -1.45261 7.37386
0.0509609 -1.17264 7.3003
-0.0562165 -1.18607 7.46637
-0.0168315 -0.919088 7.40534
-0.101761 -1.08181 7.53693
0.116901 -1.04786 7.19813
0.0822241 -0.982741 7.25186
0.217538 -1.05251 7.0422
0.0214699 -0.902315 7.346
0.0525553 -0.785061 7.29783
0.132009 -0.979421 7.17472
-0.115594 -0.647448 7.55837
0.216975 -0.656718 7.04307
-0.0656769 -0.585344 7.48102
0.146566 -0.959125 7.15217
0.408713 -1.53394 7.3659
0.36574 -1.53394 7.74963
0.428299 -1.53394 7.38631
0.443539 -1.53394 7.43135
0.400336 -1.53394 7.8395
0.437802 -1.53394 7.8355
0.275115 -1.53394 7.45597
-0.0309871 -1.53394 7.50443
0.109186 -1.53394 7.75748
0.202491 -1.53394 7.60422
0.0704327 -1.53394 7.56044
0.115095 -1.53394 7.63759
0.600909 -0.580175 7.50122
0.45499 -0.580175 7.4372
0.617195 -0.580175 7.56472
0.29977 -0.580175 7.80018
0.402961 -0.580175 7.80067
0.383083 -0.580175 7.67898
0.610661 -0.580175 7.32274
0.256324 -0.580175 7.36809
0.284167 -0.580175 7.18897
0.252668 -0.580175 7.28808
0.427374 -0.580175 7.33724
0.270533 -0.580175 7.24143
0.636895 -1.20147 7.23725
0.779482 -1.00174 7.32928
0.720334 -1.25029 7.2911
0.793045 -0.910087 7.33803
0.775212 -0.584278 7.32652
0.588045 -0.793134 7.20572
0.605115 -0.729081 7.21674
0.707577 -0.716364 7.28287
0.350439 -1.28067 7.05237
0.306357 -1.11477 7.02392
0.627726 -1.38486 7.23133
0.311874 -1.12989 7.02748
0.613855 -1.24437 7.22238
0.332349 -1.43799 7.0407
0.601289 -1.23487 7.21427
0.409631 -1.10583 7.09058
0.209504 -1.15687 7.83749
0.283309 -0.785103 7.88512
0.315225 -1.5117 7.90572
0.240416 -0.897943 7.85744
0.185001 -1.44735 7.82167
0.257783 -0.993091 7.86865
0.375174 -0.820309 7.94441
0.161445 -1.34452 7.80647
0.0990054 -1.02769 7.76617
-0.0563519 -0.985832 7.66591
-0.0292304 -0.976527 7.68341
0.266957 -0.586028 7.87457
0.270885 -0.690884 7.8771
-0.0538798 -1.02701 7.6675
0.0869838 -1.04885 7.75842
-0.0715949 -0.592153 7.65607
2.7648 -1.06993 2.60474
2.53662 -1.05406 2.45748
2.21589 -0.934978 2.25048
2.33352 -1.02601 2.3264
2.63369 -1.06175 2.52013
2.09368 -0.804876 2.1716
2.49871 -0.816302 2.43301
2.07637 -0.800313 2.16044
2.18244 -0.803041 2.22889
2.35555 -1.327 2.34062
2.37455 -1.1706 2.35288
2.11554 -0.933812 2.18571
2.26706 -1.24118 2.2835
2.15005 -1.07859 2.20799
2.32227 -1.06984 2.31914
2.38788 -1.18571 2.36149
2.16769 -1.17878 2.21938
2.41838 -1.29433 2.38117
2.67769 -1.38312 1.56261
2.69706 -1.23935 1.57511
2.56689 -0.98902 1.4911
2.52151 -1.15319 1.46182
2.7716 -1.47715 1.62323
2.74386 -1.07906 1.60532
2.87711 -1.49128 1.69132
2.77139 -1.17883 1.62309
2.82809 -1.51174 1.65968
2.79193 -1.04818 1.63635
2.80775 -1.01876 1.64655
2.85549 -1.08117 1.67737
2.77522 -1.04017 1.62556
2.72721 -0.890854 1.59458
3.12778 -1.03705 1.8531
2.9756 -1.02893 1.75489
3.00177 -0.990681 1.77178
3.06827 -0.963503 1.81469
2.59329 -1.53394 2.19446
2.6335 -1.53394 2.39925
2.8519 -1.53394 2.30068
2.639 -1.53394 2.45179
2.65802 -1.53394 2.09911
2.90082 -1.53394 2.34517
2.60046 -1.53394 2.38943
2.78541 -1.53394 2.15043
3.00664 -1.53394 2.36031
2.86896 -1.53394 2.2109
2.69951 -1.53394 1.90793
2.72972 -1.53394 1.72495
2.77243 -1.53394 1.76411
2.67697 -1.53394 1.81666
2.53816 -1.53394 1.52884
2.53904 -1.53394 1.82433
2.50296 -1.53394 1.7367
2.59309 -1.53394 1.86005
2.73624 -1.53394 1.66551
2.20971 -1.53394 2.08057
2.6378 -0.763355 2.15575
2.38788 -0.763355 2.34934
2.43924 -0.763355 2.25267
2.66621 -0.763355 2.23897
2.56815 -0.763355 2.3055
2.40291 -0.763355 1.99004
2.20474 -0.763355 1.96605
2.14446 -0.763355 1.98565
2.71485 -0.763355 2.29561
2.4655 -0.763355 2.03918
2.73391 -0.763355 1.97675
2.80502 -0.763355 2.25357
2.9658 -0.763355 1.89657
2.79969 -0.763355 2.29922
2.81264 -0.763355 1.86626
2.80085 -0.763355 2.10604
2.7071 -0.763355 2.19503
2.74017 -0.763355 2.0499
2.98033 -0.763355 1.89726
2.82242 -0.763355 1.85694
2.97547 -0.938771 2.42438
2.84729 -0.847889 2.62298
2.89649 -0.808871 2.54675
3.03894 -0.993681 2.32604
3.03654 -0.89479 2.32976
3.05067 -0.893377 2.30787
2.90917 -0.910803 2.52711
2.83246 -1.51697 2.64596
3.21847 -1.29062 2.04787
3.26383 -1.17286 1.97758
2.95225 -1.51562 2.46036
2.89622 -1.4653 2.54717
3.26131 -1.28968 1.98148
3.13405 -1.20057 2.17866
2.99721 -1.50328 2.39069
3.15031 -1.3832 2.15348
2.06188 -1.08062 2.09621
2.22431 -1.20968 1.84454
2.18376 -1.33301 1.90737
2.1565 -1.35961 1.94961
2.10284 -0.884174 2.03275
2.2504 -1.2281 1.80411
2.13432 -0.93363 1.98397
2.11864 -1.51594 2.00827
2.29686 -1.14196 1.73213
2.32285 -0.823201 1.69186
2.15358 -0.865122 1.95413
2.15127 -0.890833 1.9577
2.44129 -0.950869 1.50835
2.39681 -0.860566 1.57726
2.33422 -0.788656 1.67423
2.39178 -0.903875 1.58506
0.545174 -0.669296 0.79906
2.08961 -0.581187 -1.59394
0.541836 -0.950408 0.804232
0.943461 -0.961304 0.181942
1.38444 -0.922839 -0.50133
1.89869 -0.59821 -1.29812
1.69372 -0.454482 -0.980537
2.08792 -0.523422 -1.59131
1.66887 -0.491489 -0.942032
1.98988 -1.0972 -1.43942
2.0412 -0.740494 -1.51893
1.65163 -1.41165 -0.915313
2.11124 -1.44999 -1.62745
1.48067 -1.0841 -0.65043
2.28153 -1.01263 -1.8913
1.89988 -0.933941 -1.29996
1.73505 -1.04548 -1.04457
1.77893 -1.38724 -1.11256
2.9437 -1.35608 -0.847403
2.89876 -1.0156 -0.777766
2.73226 -1.51698 -0.519779
2.84864 -1.45277 -0.700114
3.31304 -0.711774 -1.41966
2.52789 -0.936632 -0.20312
2.6259 -0.887301 -0.354993
3.04136 -1.27799 -0.998717
2.87274 -0.738285 -0.737453
2.34093 -0.517975 0.086549
1.52204 -0.554146 1.35537
2.40189 -0.859243 -0.00790329
1.57149 -0.988215 1.27874
1.96385 -0.685317 0.670813
2.10609 -0.802161 0.450426
1.90215 -0.698025 0.766413
2.55068 -0.844741 -0.238445
1.76528 -0.82663 0.978486
1.9237 -1.53394 -0.399108
1.55555 -1.53394 0.154672
0.875359 -1.53394 0.695627
2.22812 -1.53394 -1.62311
0.794524 -1.53394 0.682169
2.28744 -1.53394 -1.84292
0.959127 -1.53394 0.381331
1.21231 -1.53394 0.0449398
1.96435 -1.53394 -0.829649
1.74544 -1.53394 -1.05733
2.71874 -1.53394 -1.72483
2.59919 -1.53394 -1.06437
2.71606 -1.53394 -0.68033
2.69503 -1.53394 -1.30266
2.28695 -1.53394 -0.456617
2.38312 -1.53394 -1.33739
2.96057 -1.53394 -0.885034
2.28705 -1.53394 -0.381915
2.51185 -1.53394 -1.622
2.89996 -1.53394 -1.43005
2.49359 -0.449217 -1.30657
1.44329 -0.449217 0.00156289
1.35082 -0.449217 -0.338664
2.22922 -0.449217 -1.6525
2.2212 -0.449217 -1.52017
2.30559 -0.449217 -1.12027
2.17416 -0.449217 -0.755307
1.32036 -0.449217 -0.151901
1.92955 -0.449217 -0.703352
1.95323 -0.449217 -0.524482
1.52451 -0.449217 0.321525
1.02609 -0.449217 0.743152
1.75408 -0.449217 0.591245
1.91432 -0.449217 0.458016
1.91982 -0.449217 -0.146456
1.29408 -0.449217 0.452317
2.02517 -0.449217 -0.129571
1.60827 -0.449217 0.710771
1.18508 -0.449217 1.30659
1.63577 -0.449217 0.942094
0.930899 -0.799506 1.20594
0.565561 -0.496975 0.970151
0.81101 -0.654037 1.12856
1.41514 -1.0734 1.51847
1.11555 -1.11897 1.32511
1.02184 -1.08357 1.26463
2.80913 -1.44897 -1.75011
2.71519 -0.959128 -1.81074
2.59425 -1.37719 -1.8888
2.74855 -0.755179 -1.78921
2.75522 -0.85074 -1.7849
3.08704 -0.94944 -1.57075
4.24275 -0.603451 -0.824858
3.50632 -0.576309 -1.30015
3.81094 -0.864337 -1.10355
3.7865 -0.865702 -1.11932
4.27752 -0.582564 -0.802419
3.94671 -0.563187 -1.01592
3.49914 -0.630273 -1.30478
3.4639 -0.531418 -1.32752
3.65428 -0.972598 -1.20465
4.24296 -0.776131 -0.82472
4.11255 -1.08085 -0.908887
4.30649 -1.06151 -0.783721
4.02405 -1.40113 -0.966004
4.06555 -1.50304 -0.939224
4.52682 -0.640931 -0.641519
4.54226 -0.997872 -0.631557
4.53682 -1.0589 -0.635065
4.17995 -0.823728 -0.865388
3.54301 -0.939482 0.0943319
3.45705 -1.09247 0.0388573
3.6827 -1.36271 0.184486
3.46246 -1.0776 0.042343
3.66007 -1.49876 0.169883
3.51468 -1.37123 0.0760502
3.89377 -0.77365 0.320713
3.47799 -1.3895 0.0523714
3.59131 -1.21304 0.125506
3.10812 -0.942936 -0.186347
3.23702 -0.831483 -0.103153
3.04764 -0.956305 -0.225379
3.35329 -0.742504 -0.0281088
3.08944 -0.598817 -0.198397
3.54915 -0.478494 0.0982955
3.61196 -0.636723 0.138834
2.89254 -0.540909 -0.32548
3.58824 -0.556649 0.123524
3.76041 -1.53394 -0.674989
3.18297 -1.53394 -1.15648
3.64576 -1.53394 -0.605434
3.36475 -1.53394 -1.33622
4.05497 -1.53394 -0.592503
3.10362 -1.53394 -0.925553
4.11962 -1.53394 -0.827474
3.34148 -1.53394 -0.768413
4.04827 -1.53394 -0.57393
3.22728 -1.53394 -1.30325
3.94542 -1.53394 0.061173
3.73521 -1.53394 -0.385354
3.82149 -1.53394 -0.139051
4.23565 -1.53394 -0.399075
3.93326 -1.53394 -0.442034
3.99027 -1.53394 -0.51329
4.53043 -1.53394 -0.569624
4.11723 -1.53394 -0.0115285
4.51108 -1.53394 -0.557336
3.71567 -1.53394 -0.285058
3.50613 -0.449217 -0.8939
3.93784 -0.449217 -1.0003
3.89324 -0.449217 -0.506166
4.23664 -0.449217 -0.648639
4.22543 -0.449217 -0.313222
3.56477 -0.449217 -1.03964
3.75734 -0.449217 -0.500532
3.88469 -0.449217 -0.6893
4.24687 -0.449217 -0.526854
3.92507 -0.449217 -0.738287
3.34652 -0.449217 -0.257926
3.23239 -0.449217 -0.902515
3.44009 -0.449217 -1.02793
3.241 -0.449217 -0.212275
3.10813 -0.449217 -0.885313
3.24189 -0.449217 -0.724133
3.22272 -0.449217 -0.925496
3.04117 -0.449217 -0.487498
2.96895 -0.449217 -0.633812
3.30942 -0.449217 -0.130539
3.24641 -0.951106 -1.36871
3.28427 -0.687009 -1.42737
3.13444 -0.894565 -1.19521
3.29048 -0.61931 -1.43699
3.15379 -0.716696 -1.2252
2.99887 -0.864625 -0.985158
2.78687 -1.24196 -0.656677
2.78968 -1.1628 -0.661028
2.80618 -1.15242 -0.686596
3.15624 -1.50833 -1.22899
2.72179 -1.19807 -0.555852
2.75664 -1.22696 -0.609838
4.47686 -1.30638 -0.407274
4.3282 -1.06551 -0.176945
4.34231 -1.08633 -0.198804
4.53072 -0.700968 -0.490736
4.33067 -1.115 -0.180769
4.49521 -0.973817 -0.435713
4.26085 -0.596165 -0.0725912
4.53822 -0.549136 -0.502346
4.27629 -0.98523 -0.0965048
4.17921 -0.825915 0.0539022
4.04473 -0.788355 0.262272
3.9865 -0.474767 0.352501
2.86345 -0.950575 4.13642
3.01586 -0.800973 3.90027
2.19192 -0.703022 5.17691
3.11968 -0.824928 3.7394
2.54454 -0.728674 4.63055
2.6004 -0.959789 4.54401
3.09017 -0.99334 3.78514
2.32424 -0.811752 4.9719
2.41663 -0.703474 4.82874
2.99621 -0.954504 3.93072
2.60096 -1.23092 4.54314
2.43184 -1.02575 4.80518
2.43147 -1.31071 4.80575
2.57732 -1.10978 4.57976
2.45283 -1.02203 4.77266
2.35926 -1.22949 4.91764
2.51456 -1.14439 4.677
2.24987 -0.811762 5.08713
2.46761 -1.52571 4.74975
2.13692 -1.07581 5.26213
1.4958 -1.13856 4.66899
1.81465 -1.06149 4.17496
1.74712 -1.22774 4.27959
1.76213 -1.52568 4.25632
1.58514 -0.934175 4.53056
1.77376 -1.20432 4.23831
1.40363 -0.839082 4.81179
1.47753 -1.52846 4.69729
1.86438 -1.28805 4.0979
1.47226 -1.31799 4.70547
1.94501 -0.709115 3.97296
2.17452 -0.781012 3.61735
2.28412 -1.03755 3.44754
2.40106 -0.835136 3.26636
2.14117 -0.927152 3.66903
2.33687 -0.804805 3.3658
2.29229 -0.736505 3.43488
2.03895 -0.896148 3.82741
2.04462 -1.01655 3.81862
2.21573 -0.716309 3.5535
2.87585 -1.53394 3.62376
2.61409 -1.53394 4.13699
2.23834 -1.53394 5.01246
2.68941 -1.53394 4.09376
2.41891 -1.53394 4.40213
2.3596 -1.53394 4.89832
2.4514 -1.53394 4.13283
2.79686 -1.53394 3.898
2.67733 -1.53394 4.26423
1.79559 -1.53394 4.93194
1.91 -1.53394 5.17284
1.58358 -1.53394 4.58802
2.08278 -1.53394 4.41603
2.08528 -1.53394 5.10301
2.05385 -1.53394 4.58875
1.68843 -1.53394 4.88172
1.53892 -1.53394 4.60379
1.53562 -1.53394 4.86403
1.87801 -0.657398 4.87833
2.29128 -0.657398 4.90347
1.9303 -0.657398 4.92572
2.47069 -0.657398 4.36068
2.7575 -0.657398 4.01996
2.15617 -0.657398 5.00936
1.99164 -0.657398 4.93303
2.67422 -0.657398 4.19937
2.25111 -0.657398 4.76133
2.92012 -0.657398 3.75205
2.34012 -0.657398 3.86138
2.20555 -0.657398 3.98926
2.1005 -0.657398 4.11256
2.99809 -0.657398 3.62437
2.79105 -0.657398 3.65033
2.24133 -0.657398 4.20125
2.43912 -0.657398 3.56502
2.21505 -0.657398 4.0192
2.98032 -1.02978 3.60746
2.89343 -1.07655 3.55138
3.0469 -1.36864 3.65043
2.88988 -0.818516 3.54909
2.6419 -1.35546 3.38905
2.96161 -1.42571 3.59538
2.95036 -1.34442 3.58812
2.68413 -1.11997 3.4163
1.7827 -1.13824 5.14282
1.87292 -1.25375 5.20105
1.74145 -1.40691 5.11621
1.79637 -1.20883 5.15165
1.66517 -0.992423 5.06697
1.8194 -0.725778 5.16651
1.68045 -0.723218 5.07683
1.59489 -0.896414 5.02161
1.77379 -1.17043 2.77385
1.95945 -1.1073 2.89367
1.7122 -0.912212 2.7341
2.09758 -0.961741 2.98282
2.00195 -0.954031 2.9211
1.93793 -1.16754 2.87979
1.79773 -1.06008 2.7893
1.7323 -1.06506 2.74707
2.09342 -1.02001 2.98014
1.95004 -1.45027 2.8876
2.07012 -1.29781 2.9651
1.9813 -1.22054 2.90778
2.00227 -1.3399 2.92131
2.03109 -1.47875 2.93991
1.96214 -1.19311 2.89541
2.08821 -1.34809 2.97678
1.63737 -1.45676 3.4752
1.64196 -1.40443 3.47816
1.81063 -1.26551 3.58702
1.77045 -1.44308 3.56109
1.79358 -0.955956 3.57602
1.69083 -1.16582 3.5097
1.78782 -1.51061 3.5723
1.73691 -1.07507 3.53944
1.33868 -0.931469 3.28243
1.39334 -1.08215 3.3177
1.32476 -1.05583 3.27344
1.47006 -1.01555 3.36721
1.54688 -1.18418 3.4168
1.52723 -1.0533 3.40412
1.34376 -1.01335 3.2857
1.40361 -0.972419 3.32433
1.65661 -1.53394 3.06728
1.74123 -1.53394 2.90497
1.55216 -1.53394 3.01566
1.5964 -1.53394 2.98521
1.81519 -1.53394 3.11254
1.92642 -1.53394 2.92662
1.61457 -1.53394 3.05004
1.63562 -1.53394 2.96109
1.8958 -1.53394 2.9093
2.10718 -1.53394 3.12476
1.76994 -1.53394 3.44859
1.74706 -1.53394 3.22314
1.80858 -1.53394 3.36332
1.67607 -1.53394 3.3861
2.02737 -1.53394 3.2224
1.71414 -1.53394 3.4873
1.69219 -1.53394 3.34902
1.96247 -1.53394 3.22844
1.95564 -0.907079 3.11803
1.80912 -0.907079 2.85323
2.04084 -0.907079 3.02738
1.86408 -0.907079 2.99144
2.00393 -0.907079 3.26387
1.82461 -0.907079 2.96273
2.02472 -0.907079 2.97659
2.05279 -0.907079 3.10771
1.86254 -0.907079 2.83122
1.68224 -0.907079 3.13624
1.63326 -0.907079 3.10816
1.57429 -0.907079 3.00743
1.53947 -0.907079 2.95725
1.52437 -0.907079 3.34085
1.48945 -0.907079 3.33842
1.62879 -0.907079 3.13176
1.41544 -0.907079 3.31082
1.52878 -0.907079 3.05543
1.62211 -1.01241 2.8105
1.56781 -1.05885 2.89463
1.54399 -1.09706 2.93155
1.52667 -1.07163 2.95838
1.50896 -1.06608 2.98581
1.65894 -1.26481 2.75343
1.63277 -1.09847 2.79398
1.67208 -1.23795 2.73307
1.57941 -1.12414 2.87666
1.66695 -0.951333 2.74103
1.47437 -1.39887 3.03942
1.52246 -1.46609 2.96491
1.42224 -1.51043 3.12019
1.49522 -1.28493 3.00711
1.56011 -1.43471 2.90657
1.33714 -1.23444 3.25205
1.56306 -1.36955 2.902
1.37794 -1.37284 3.18883
1.35233 -1.30915 3.2285
1.33689 -1.22654 3.25244
2.04128 -1.41519 3.25318
2.06602 -1.33215 3.21485
2.10008 -1.19689 3.16208
2.0304 -1.51415 3.27004
2.17899 -1.0055 3.03981
2.17448 -1.42127 3.0468
2.01188 -1.28743 3.29874
2.17079 -1.41643 3.05251
2.07654 -1.09953 3.19855
2.07884 -1.30543 3.19499
1.84006 -1.1298 3.56496
1.88201 -0.975446 3.49996
1.83823 -1.08006 3.5678
1.89898 -1.17762 3.47366
2.11052 -0.948032 3.14589
1.9245 -1.13834 3.43412
1.8266 -1.07386 3.58581
2.06792 -0.95378 3.21191
1.95848 -1.18738 3.38147
2.07443 -0.960193 3.20181
0.850848 -1.07737 3.12559
0.959591 -1.0895 2.95697
0.76356 -0.921452 3.26094
0.758084 -1.15354 3.26943
0.890346 -0.921946 3.06434
0.995224 -1.0013 2.90172
0.82265 -1.00243 3.16931
0.828069 -1.1299 3.16091
0.918089 -1.43069 3.02133
1.00955 -1.22804 2.87951
0.917014 -1.35644 3.02299
0.972032 -1.48572 2.93768
0.947054 -1.5196 2.97641
0.9407 -1.48813 2.98627
0.973061 -1.45422 2.93609
1.07219 -1.10826 2.78237
1.50358 -1.49592 3.33722
1.51386 -1.38449 3.32128
1.61668 -1.32303 3.16185
1.57837 -1.09678 3.22126
1.60092 -1.42676 3.18629
1.49232 -1.45035 3.35469
1.49652 -1.18868 3.34817
1.51509 -1.46698 3.31937
1.36347 -1.1229 3.55449
1.40677 -1.08497 3.48734
1.36158 -1.02801 3.55741
1.51146 -1.13729 3.32502
1.3903 -1.20334 3.51288
1.31307 -1.00123 3.63263
1.50884 -0.949172 3.32907
1.5398 -1.01506 3.28106
0.995789 -1.53394 3.23677
1.00201 -1.53394 3.08351
1.04766 -1.53394 2.82689
1.06237 -1.53394 3.13101
1.15201 -1.53394 3.26301
1.08074 -1.53394 3.02538
0.97126 -1.53394 3.35879
0.899048 -1.53394 3.21579
1.11074 -1.53394 2.91241
1.39524 -1.53394 3.13955
1.30263 -1.53394 3.14382
1.29764 -1.53394 3.02777
1.22288 -1.53394 2.93245
1.29253 -1.53394 3.15822
1.42628 -1.53394 3.12774
1.33506 -1.53394 2.95699
1.55359 -1.53394 3.25208
1.48457 -1.53394 3.11904
1.14112 -0.907079 3.12418
1.22791 -0.907079 3.04359
1.11293 -0.907079 3.15049
0.97838 -0.907079 3.19046
1.20539 -0.907079 3.05113
0.905109 -0.907079 3.22574
1.00117 -0.907079 3.01453
1.08769 -0.907079 3.18527
1.12624 -0.907079 2.83582
0.883974 -0.907079 3.27497
1.02908 -0.907079 3.342
1.22078 -0.907079 3.49303
0.969508 -0.907079 3.27126
1.28036 -0.907079 3.27053
0.903278 -0.907079 3.29813
1.17901 -0.907079 3.3028
1.40072 -0.907079 3.4616
0.7661 -0.907079 3.27999
0.80369 -1.00056 3.30888
0.942308 -1.16471 3.39828
0.800372 -1.39288 3.30674
0.984008 -1.05397 3.42517
0.878022 -1.09847 3.35682
0.872316 -1.00942 3.35314
0.92847 -0.951785 3.38935
0.839234 -1.17015 3.3318
0.966696 -1.19222 3.414
1.00664 -1.24146 3.43976
1.0121 -1.50833 3.44329
0.91464 -1.47427 3.38043
0.938688 -1.4529 3.39594
1.04591 -1.24198 3.46509
1.11293 -1.26443 3.50831
1.24156 -1.40494 3.59127
1.02215 -1.36446 3.44977
1.1976 -1.23534 3.56292
0.897573 -1.44468 3.36942
1.2551 -1.28836 3.6
1.3207 -1.40807 2.93759
1.30187 -1.46096 2.92544
1.21185 -1.15073 2.86739
1.08411 -1.113 2.78501
1.23596 -1.17778 2.88293
1.32901 -1.32817 2.94294
1.11199 -1.52831 2.80299
1.327 -1.40403 2.94165
1.25446 -1.48797 2.89487
1.10792 -1.18109 2.80036
1.16759 -0.97679 2.83884
1.34276 -1.1392 2.95181
1.49627 -0.968293 3.05081
1.18473 -0.985995 2.8499
1.36114 -1.20276 2.96367
1.1851 -0.975804 2.85014
1.31683 -1.05748 2.93509
1.40302 -0.950768 2.99068
1.49632 -1.13997 3.05084
1.59868 -0.998868 3.11686
0.431282 -1.00014 3.77561
0.415474 -0.981515 3.8001
0.286426 -1.18155 4.00005
0.439349 -0.964182 3.76311
0.35049 -1.09315 3.90079
0.402886 -1.05106 3.8196
0.336215 -0.965653 3.9229
0.356976 -1.20102 3.89074
0.498611 -1.40736 3.67128
0.455232 -1.42751 3.7385
0.446861 -1.29202 3.75147
0.464557 -1.36935 3.72405
0.478739 -1.15996 3.70207
0.522561 -1.19065 3.63417
0.522804 -1.16886 3.6338
0.457357 -1.25404 3.7352
1.03361 -1.14483 4.06545
1.02568 -1.48027 4.07773
1.05455 -1.13661 4.033
1.06122 -1.13134 4.02267
1.1366 -1.5127 3.90587
1.0126 -1.32062 4.09801
1.13615 -1.20562 3.90657
1.0829 -1.19422 3.98909
0.968315 -0.968435 4.16662
1.05794 -1.01711 4.02775
0.879282 -1.08073 4.30457
0.92842 -1.20107 4.22844
1.0039 -1.10324 4.11149
1.01312 -1.15472 4.09719
0.945105 -1.05844 4.20258
0.963746 -1.22005 4.1737
0.552132 -1.53394 4.08564
0.64906 -1.53394 3.8976
0.567047 -1.53394 3.57292
0.61644 -1.53394 4.04282
0.534735 -1.53394 4.07299
0.35363 -1.53394 4.03536
0.624321 -1.53394 4.00151
0.571447 -1.53394 3.78056
0.627628 -1.53394 3.78492
0.680138 -1.53394 3.76367
0.659054 -1.53394 3.71057
0.876572 -1.53394 3.78778
1.04975 -1.53394 3.86364
0.73184 -1.53394 3.70551
0.829258 -1.53394 3.79789
0.826653 -1.53394 3.9093
0.710083 -1.53394 3.94869
0.907454 -1.53394 3.94764
0.63139 -0.907079 3.89788
0.437593 -0.907079 3.95585
0.72906 -0.907079 3.67268
0.577806 -0.907079 3.62726
0.274156 -0.907079 4.02072
0.648054 -0.907079 3.8946
0.602958 -0.907079 3.78132
0.563576 -0.907079 3.84702
0.717004 -0.907079 3.94065
0.533356 -0.907079 4.0318
0.789258 -0.907079 4.18949
0.363447 -0.907079 4.0742
0.9155 -0.907079 4.14994
0.754195 -0.907079 4.29356
0.485612 -0.907079 4.14293
0.723629 -0.907079 3.98425
0.603975 -0.907079 3.97611
0.803198 -0.907079 4.18791
0.486748 -1.14506 4.1688
0.362514 -1.17314 4.08862
0.49632 -1.14289 4.17498
0.399933 -1.34339 4.11277
0.382301 -0.919919 4.10139
0.358458 -1.03193 4.086
0.300983 -1.34828 4.04891
0.430067 -0.95529 4.13222
0.408808 -1.03116 4.1185
0.511186 -1.10864 4.18458
0.600983 -1.46812 4.24253
0.611501 -1.44561 4.24932
0.4976 -1.296 4.17581
0.706282 -1.29256 4.31049
0.358342 -1.51617 4.08593
0.63879 -1.37691 4.26693
0.72053 -1.52371 4.31968
0.585585 -1.34423 4.23259
0.479232 -1.30288 4.16395
0.754126 -1.51863 4.34137
0.813823 -1.51655 3.67502
0.715406 -1.46813 3.6115
0.816866 -1.3013 3.67699
0.607117 -1.42392 3.54161
0.610254 -0.970007 3.54364
0.694613 -1.03843 3.59808
0.624591 -1.00224 3.55289
0.603548 -1.12622 3.53931
0.615808 -1.46832 3.54722
0.793061 -1.48173 3.66162
1.09851 -1.09309 3.85876
0.847805 -0.91722 3.69695
0.774421 -1.05541 3.64959
0.819535 -1.13583 3.67871
0.784214 -1.10995 3.65591
0.879959 -0.955501 3.71771
0.876236 -1.12227 3.7153
1.04868 -1.10315 3.8266
1.03046 -1.22021 3.81484
0.99977 -1.1051 3.79503
-0.665659 -0.681814 3.98037
-0.524847 -0.875367 4.0211
-0.507693 -0.883878 4.02607
-0.565628 -0.897776 4.00931
-0.52752 -0.836583 4.02033
-0.280574 -0.294623 4.09177
-0.723797 -0.688776 3.96355
-0.710177 -0.27381 3.96749
-0.718824 -0.587309 3.96499
-0.410708 -1.39169 4.05412
-0.407504 -1.02276 4.05505
-0.231115 -1.12344 4.10608
-0.332561 -0.83221 4.07673
-0.436038 -1.44364 4.04679
