-2.102521315852771 -0.030147027793081205 1.0685595089572741
-2.102794766889904 -0.36948148746137316 1.0636094245527843
-2.0918258096789133 -0.031248167096939616 1.2621724455342194
-2.1126920996329424 0.16085452117423527 0.8844452386311712
-2.0824390803264548 -0.8021292775728462 0.43476062030422846
-2.126336795216406 0.1455238602211672 0.43718560450536037
-2.1083049665631726 0.8616489470005035 0.6024804072416952
-2.06795499582005 0.8616489470005035 0.9421488948094257
-2.03032766290947 0.6859821054270632 1.3444583635747986
-2.0735650594157864 -0.9290650729547839 1.3468468706688181
-2.067897005011377 -1.2836242616176605 1.0704835177020848
-2.1269682199034996 -1.2836242616176605 0.6124215324091719
-2.004438853449099 -0.1308771572458003 1.3936830277686107
-2.0041095472527557 0.8377173354284524 1.3996442176343913
-2.054888051952686 1.3607794636074548 0.480437986540194
-2.029956809315585 1.1767712978476539 0.9317500863424582
-2.103523409110328 -0.2509522346338091 -0.39997240787729527
-2.1157270397790615 0.13845579602524538 -0.6208858321492676
-2.1250591344262615 0.4893739260331288 -0.7898179344149532
-2.135565974460366 0.2274099733705366 -0.9800155955223657
-2.106078304195471 -1.185778395647298 -0.44622180998028627
-2.1421947336534792 -0.7279313688238594 -1.1000111879633
-2.1090110523950343 0.0038555157773049187 -0.4993112113953011
-2.1316183032904665 0.271399792235981 -0.9085537838931004
-2.1275753219258537 0.6183739174766594 -0.8353666413312801
-2.111073688008108 -0.4541474208023035 -0.5366495993454405
-2.061205937418356 0.2943562810497562 0.36606991442578907
-2.092513945665244 0.8046376708242342 -0.20067612179074024
-2.0651245076849842 1.0414982194751188 0.29513489522129555
-2.1325433165365926 1.1677038515272191 -0.9252986239530523
-2.079969452363902 0.8049481963460388 0.02640769008307764
-2.0721284901294545 1.0478532624678145 0.1683469099610646
-2.0956036160595617 0.1890192737247807 -0.2566061712332507
-2.1076033760338997 1.2164945149941622 -0.47382907303448585
-2.1055925395062203 0.9647175698964857 -0.4374283661432973
-2.1073724204681827 0.5793017139074947 -0.4696482528947947
-2.228835328805731 -0.7747311937989856 -2.668402683543687
-2.2428578899701352 -1.1919778926799376 -2.922242879791873
-2.2124877076513045 -0.7275419657186191 -2.372473622270308
-2.168743767880385 -0.7426762267589234 -1.5806089888461279
-2.241905813387656 1.3731292576988392 -2.9050081318947973
-2.220469517670679 0.9629143136046425 -2.5169625068598767
-2.1842546650902315 1.377348989726441 -1.8613914468843635
-2.235255742379468 1.466919301113123 -2.7846267472111057
-2.2821065615352207 0.13569381355712196 -3.632732951880303
-2.2791457740401007 -0.3107857459388566 -3.579135975550595
-2.2782263277995027 -0.19296757709614587 -3.562491910930965
-2.279444060972929 -0.60127108578238 -3.584535646315428
-2.2868871144538523 -1.0273645987129196 -3.7192718142759027
-2.2805620922552237 0.2780362141428615 -3.6047745510905167
-2.2857561433652425 1.4430742020910787 -3.698798669625804
-2.269885751911965 0.1413534928607467 -3.4115085495255024
-2.28774712911566 0.7961005321244148 -3.734840032376014
-2.293005259211997 1.317418583735314 -3.8300241260593375
-2.2678511367717964 0.16899094005299586 -3.374677395757315
-2.276430332129324 1.1064478570049971 -3.5299803113712276
-2.4405666376744097 1.3925403530966465 -3.6004411705521235
-2.4208412639718686 0.42795650647235106 -3.243367118742508
-2.4207101035719223 0.372331297838599 -3.2409928176949347
-2.424296257636044 0.6238338199413817 -3.3059103488606154
-2.4195988761926412 0.3311433656437134 -3.2208770790131065
-2.416640659395249 0.2282540018016339 -3.167326638149221
-2.440061404373005 -0.2336333066106927 -3.5912953006303505
-2.438163151724014 -0.046422903058294995 -3.5569326175727327
-2.442053702788578 -1.1358853868231296 -3.627360425600369
-2.434590721111142 -0.9815976007575355 -3.492263512034692
-2.4425973480504926 -0.06686347217741662 -3.63720163922432
-2.4386600414153388 -0.9418898946360303 -3.565927449207321
-2.384952793828302 1.3926505194416854 -2.5937043219479072
-2.339350518330889 1.2466135004611254 -1.768199592397379
-2.338022729370508 1.040184341662888 -1.7441635973799474
-2.36249629556875 1.1918733129753782 -2.1871907144535916
-2.3249061838965046 -0.8802587946146353 -1.506724342297853
-2.3797392929636914 -0.6458658976129428 -2.4993281186925307
-2.3718137589741173 -1.1458885539538455 -2.3558579580208723
-2.3631025136726462 -1.0383552577571291 -2.19816463859327
-2.2506974809022737 -0.18670626139952973 -0.16337832222867155
-2.272626213763387 0.7536337898072062 -0.5603381776842574
-2.254460319648665 1.05304425370826 -0.23149424731793733
-2.2260393199612447 0.3172934163008364 0.2829903788242505
-2.3002669455209266 1.378193776074776 -1.060698182644556
-2.2374678164086212 0.3723052612043054 0.07610864395344885
-2.277200107301547 1.1831042735120076 -0.6431360360592367
-2.245295357843173 0.5467725754173633 -0.0655876289735775
-2.2367698165629646 0.30191360348967566 0.08874402601564402
-2.292020856461397 1.346672928332446 -0.9114252473647644
-2.275037268214703 -0.08399127192980194 -0.6039837377151049
-2.2734050801760555 -1.111348481272743 -0.5744374282223675
-2.2808488955086696 -0.7511325599797145 -0.7091873874282935
-2.2629080998160633 -0.7929738039519018 -0.3844182496034385
-2.299348525876108 -0.26414429616150903 -1.0440727017394904
-2.2802261824867087 -0.29520881357383255 -0.6979148678188148
-2.301316031854403 -0.16323111902212717 -1.0796890273018795
-2.268597822075809 -0.7767469704353978 -0.48741514140362086
-2.2663078157005017 -1.155122055962136 -0.445960826396373
-2.2701514079438088 -0.4156872285201112 -0.5155385731360861
-2.1749091386110053 1.224778185883732 1.2085627557946341
-2.1924095304548947 0.9843344136205383 0.8917659275982421
-2.1604034742526634 0.5244597271089879 1.4711482167715317
-2.1597012501496047 -0.25343222934236764 1.483860067484159
-2.1573834426661183 0.1573899471967461 0.43890057713054276
-2.1940275229896593 -1.1265980075595818 0.4409248581226344
-2.0401120111455113 0.8616488873958589 1.1875445058143175
-2.159055090913482 0.8616488873958588 0.8958047141991727
-2.0636770551795336 -1.0009105706264694 1.346300413917778
-2.1412716519632586 0.5338875823331148 1.3505868707198445
-2.2889482523681317 -0.6433360874652863 -2.680080960095316
-2.2788879023455952 -0.6433360874652863 -1.3318412697904063
-2.365025936478148 0.751969951703125 -3.037421419452477
-2.365087914726504 -0.08668736892915652 -3.0374179956691822
-2.2678820054143563 0.9494396150112152 -1.6170604567525955
-2.3639688150791716 0.9494396150112152 -2.7871373452689774
-2.1680638523729745 -0.07408405647939562 -1.148142914796501
-2.2986159241459267 0.04446205339364412 -1.1409309974817579
-2.1705824304475034 1.4726257026195528 -1.240851342137677
-2.3011243352742365 1.4726257026195526 -3.519396065442299
-2.140768347163965 1.4726257026195526 0.500000689229098
-2.2224175287866146 1.4726257026195526 -0.7569669073256999
-2.0399399874565813 -1.2836242020130157 1.4924159852623533
-2.139119059643227 -1.2836242020130155 1.538998946019709
-2.1528606582424317 -1.2836242020130157 -0.7286464533718842
-2.336220387299475 -1.2836242020130157 -2.0462365108023475
-2.38258832225166 -0.9835131865675422 -4.0240346471358475
-2.460280952151529 0.5781533488315045 -4.0197427748185905
-2.0637512209760347 0.3341443528430301 1.558822963336139
-2.1445961821050696 -0.6108188686459274 1.563288975763657
-2.469709344407731 -1.2836242020130157 -4.136772562294036
-2.349747933990122 -1.2836242020130157 -4.1220137315157395
-2.410634578295345 1.4726257026195526 -4.035921054646095
-2.3839382771478177 1.4726257026195526 -4.128137911946305
-2.404535749101316 0.14427249392105684 -4.022822234145678
-2.36077583273753 0.5688523940182822 -4.025239605959314
-2.4707297751962956 -0.19884412721941636 -4.146462717295883
-2.4639542061938373 -0.8416065059342435 -4.02380953396422
-2.375050259636333 0.033613674235521585 -4.184694861039604
-2.3995104410783443 0.6884114678443405 -4.183343639234637
-2.3081818793505353 -0.48132900014643865 -4.104755294566651
-2.3092938607576814 1.1329273727926876 -4.124884652413712
8.334181761417383 0.5031593530158229 -3.199111652029325
8.326295031105545 0.49241790087017656 -3.341878464245559
8.324051919381489 0.555918344847621 -3.382483619693532
8.324721888410261 0.4829963363803411 -3.370355736687582
8.323377934316273 0.41636440182494466 -3.3946842016124763
8.325830474466835 0.6831149802081763 -3.3502879403884016
8.338927949935917 0.7217484976098045 -3.113195413210907
8.332211462146912 0.4950561149479023 -3.2347783142372246
8.336248798826059 0.4121473371990811 -3.1616938210778303
8.326802227039622 0.7395311141904072 -3.3326971249815003
8.341898735594237 -0.035683261438581304 -3.0594177916306045
8.35015759096162 -0.07716950625961083 -2.9099147140895463
8.340225645173204 0.3541131319968468 -3.0897043332664755
8.35674075469045 0.654915419995534 -2.7907452658263048
8.352760601882325 -0.06338497943007332 -2.862794607705862
8.355602835949831 0.19599571820628853 -2.811344046909971
8.356720632818645 0.26649607944615905 -2.791109515062678
8.347470063917722 0.14237381309457783 -2.958564744410267
8.34283940871829 -0.031525668986641164 -3.042389581212771
8.352893770888736 0.11520258021683122 -2.8603839617500157
8.4357884207056 0.0318555664958558 -2.810192522867026
8.433086521544508 0.2202821987312534 -2.859102719476645
8.429232843968357 0.11964926255807956 -2.928862587140728
8.419613399200177 0.3462407651561889 -3.1029952645040795
8.436327189768505 0.2641887610703005 -2.800439641940413
8.42156338657249 -0.02590080890949431 -3.0676962914189785
8.421937222550488 0.3313541010869074 -3.060929054711215
8.433306069038974 0.2740003231814918 -2.8551284367668863
8.429874052633442 0.001778208369310752 -2.917255328687603
8.422458652826615 0.035930128392348604 -3.051490043185256
8.421746672936107 0.4875365077621738 -3.0643784133095897
8.420556319285433 0.8372681183626254 -3.0859263792469567
8.41378018929887 0.7062403096481775 -3.2085889325603634
8.42362548214572 0.5597023795893855 -3.030367918337253
8.405281375956067 0.02355088355489965 -3.362435766495022
8.402704562278815 0.2567338960431472 -3.409081646324877
8.414258255531877 0.5075781407995044 -3.1999349036515716
8.41878324872047 0.8055973845939788 -3.1180227769156263
8.418348021595092 0.49478122252173357 -3.125901325670736
8.407709614973275 0.34758643509393167 -3.3184794081464464
8.363017643509394 0.01861940112850613 -2.7867329669392826
8.392243006657669 0.6331939157903284 -2.788347435596799
8.362414716276508 0.8575700540661657 -3.0632596380842547
8.405531576024977 0.8575700540661657 -3.1638647530749693
8.335164932287576 0.4475543797027055 -3.4204069410465188
8.343796729706769 0.15861320889454972 -3.4208837791381654
8.349542595231256 -0.0780304093479956 -3.207464976719266
8.39442136753817 -0.0780304093479956 -3.0563328505731158
8.472153951570311 -0.09412007074706213 -0.7015089589482253
8.469375845484182 0.5784983931310629 -0.7517989805860806
8.468214787817969 -0.1713884778900667 -0.7728167579302029
8.48791552887456 0.7192163944610449 -0.41618865831780966
8.455874120739335 0.19251402285007024 -0.99621082394837
8.458810175069221 -0.10414962065769312 -0.9430615808301308
8.455004084217752 0.1543835096271186 -1.011960458461823
8.480747032981563 0.5596981788665608 -0.5459546940245402
8.457706659534626 0.5477316251739832 -0.9630377150712424
8.492374479046651 0.4797086573981604 -0.3354715461253513
8.487773241984852 -0.056994423972762 -0.41876437376580233
8.496204553680734 0.5116808886295109 -0.2661385076267949
8.478932021823548 -1.010337974298403 -0.5788105129096885
8.485667677980588 -0.30172905446830417 -0.45687985821867366
8.497120351882193 0.4191907362088606 -0.249560482907992
8.499188946242949 0.5941360813351271 -0.21211423285954428
8.489484034168408 -0.7523144177433321 -0.3877951547145624
8.476439387745184 -0.8901334108511683 -0.6239328436810091
8.496453963748271 -0.34886501680742515 -0.2616236196764203
8.491966740887458 -0.3689704769644581 -0.34285253166466134
8.539285561917964 -1.1244492438082925 -0.9366639189349215
8.562622079796476 -0.6919442109444118 -0.5142200119428824
8.574769711149994 -0.37749313992853883 -0.2943203304053774
8.553249243325329 -0.42141451986827 -0.6838896121412427
8.575360109994268 -0.27945241860597164 -0.2836327721433986
8.571326303026808 -0.9266123723401013 -0.35665382799483414
8.551017123501214 -0.49101537300069054 -0.7242960439954813
8.565591308489958 -0.9421261479116241 -0.460470237595345
8.550085421686331 -0.7160216064988217 -0.7411619601908606
8.549762307504766 -0.7775277104882431 -0.7470110597855524
8.549827820510938 0.47643549761149073 -0.745825125773032
8.546579513435619 -0.01727360672717665 -0.8046268518553662
8.56781230219669 0.3106269859538848 -0.420265213702688
8.559210043672893 0.6630815651619852 -0.5759856051795353
8.558971475076627 -0.0759558933462573 -0.5803042379085929
8.5569500710431 0.3010721594840844 -0.6168962359940886
8.555865941506257 0.5203279871752831 -0.6365214397032932
8.545143784597634 0.0905024736634904 -0.8306168004353859
8.55418654698472 0.27499712979325275 -0.6669222898537989
8.535999017625345 -0.9818406507013486 -0.9961578253824903
8.518062647662243 -0.35035519996468956 -0.20462544172815306
8.53182779247775 0.4218525493513786 -0.20538585162180995
8.519459509628916 0.7577725946903229 -0.5299647914014123
8.501316891248596 0.7577725946903229 -0.9260377241727604
8.495993749314676 0.41834253441171165 -1.0503569273118172
8.456343132202969 -1.222290708546185 -1.0481665601238617
8.518510492444454 -1.2836242616176605 -1.046314866821846
8.545524991875943 -1.2836242616176605 -0.48632010991209107
8.319114085444154 0.6953379644857227 -3.4718782856537307
8.304979160658375 -0.33604542662309045 -3.727751675801235
8.291333352907614 -0.09015658421682926 -3.9747709662045976
8.302860087986556 -0.983005775737863 -3.766111576311836
8.30066289520179 -1.1097788775042825 -3.805885623585951
8.30549882902315 0.7154448872205861 -3.7183445294412376
8.263316028985582 0.11877513436715548 -4.481946473923159
8.259407547641247 1.430826698579024 -4.552698627688363
8.28365494453711 0.8389643455389056 -4.11376713424041
8.275903422995771 0.3780422915019149 -4.254086812317446
8.271252242799097 0.2798255578131538 -4.338283457375468
8.30010703527192 1.3906979581207244 -3.8159479172917083
8.346377758648382 -1.1060884162919753 -2.9783455222068724
8.334577008369811 -0.5606447217300459 -3.19196519304514
8.348982599157743 1.1688670036673408 -2.9311921498313427
8.35204196359597 1.3912106776544524 -2.875810889416475
8.43105773825495 0.2608607001252321 -1.4454506686486377
8.433421838549478 0.6283309664363115 -1.402655226424685
8.448735288836192 0.8700015302646575 -1.1254479190565978
8.450637738718644 -0.057194528392567 -1.0910093699743595
8.449124742451813 0.2691008806955435 -1.1183979475537527
8.432318186945713 0.289410497503904 -1.4226337605645494
8.44759983207361 -0.930781994722294 -1.1460021968904366
8.436379830005068 -0.4328339313197773 -1.3491090411255158
8.429270321640745 -0.21803145156495207 -1.4778068612435107
8.435333526578836 -0.057029588455334235 -1.3680494464584347
8.358240079208652 0.2599661383045019 -2.763611293141397
8.403540961796052 0.6724221283840056 -1.943565160602123
8.42902922514652 1.2112218708117302 -1.4821712408397716
8.36430754468673 0.1906967543087491 -2.653776753162767
8.432913377607408 0.9365016870098578 -1.411859493654752
8.380506436093544 0.9365747824155144 -2.3605410038602392
8.390319436880954 0.5879265976408996 -2.1829039936144636
8.405483524116292 0.680242168823499 -1.908400487709568
8.408685943044423 0.3619277540447394 -1.8504296247419936
8.370828386824499 0.1480167774245813 -2.5357350932533675
8.488162670852498 1.1614924983716208 -0.41172513283401746
8.46972991606063 1.3237028366841748 -0.7453987483525075
8.532405171555162 -0.9821999695103627 0.389161947568617
8.545104078716063 -0.7767755486711777 0.6190402437515097
8.549346440133943 0.489663254557931 0.6958363650379824
8.56010029249804 -1.2075672536899669 0.8905048689917843
8.532333752848238 -1.0156625473502388 0.38786911107056055
8.559947442028603 0.19102841512318902 0.8877379375511789
8.52988095506824 0.5177206250947088 0.34346804825444854
8.508469055082525 0.1787872517508683 -0.04413468199540116
8.550222916138937 1.125339093847118 0.7117025185675958
8.505509240778506 1.2594021194245368 -0.09771386488133516
8.507658716599268 1.4396885766874967 -0.058803600155210356
8.525934367215232 0.6036627193192083 0.2720260824308989
8.694205690512327 0.6182774027869747 0.4173396148631885
8.681710326152553 0.8106596833251256 0.19114589340242016
8.663678848138765 -0.3755955043798495 -0.13526372523239827
8.680263231467478 0.9423160335537554 0.1649502801574816
8.665103862832193 -0.20168485936653213 -0.10946780865390005
8.675989675659675 0.41063448837830474 0.0875894714443668
8.677995766969792 -0.934147330757348 0.12390415951268285
8.69067005513781 -0.31843043178782166 0.35333679749317515
8.702356482292965 -0.07568146429256883 0.5648869670356089
8.714240129298599 -0.8309204037813165 0.7800072519137284
8.679412742185423 -0.7305113707283414 0.14955454376823418
8.665055049302811 -1.2616624107295689 -0.11035144145968667
8.629722835823127 1.361758208851309 -0.7499426229817339
8.640355299160797 0.7669236129206015 -0.5574715287905947
8.545746351508392 -0.31903392319278845 -2.270102656369225
8.580600724762057 1.1401826007550109 -1.6391614394159892
8.602936507238553 1.4059184817948696 -1.2348343934307107
8.576528362591587 1.0560255117247093 -1.7128801984655821
8.557254969291675 0.36611071487120783 -2.061771229584189
8.582789637779682 1.2262777561789449 -1.59953727423323
8.543302015896924 0.6482525065413945 -2.314350535225542
8.548552139087507 0.769350616918779 -2.2193116977484553
8.567833609174475 0.20367169030088772 -1.8702744589268203
8.52283090950131 -1.0995278072607302 -2.684922821452727
8.60757541728183 -0.9990273620189034 -1.150859865277829
8.579133617904418 -0.976472595150593 -1.6657193172301235
8.601160810122087 -0.1833047229192043 -1.2669784372053523
8.539161718531057 -1.0077753705229415 -2.3892990715126956
8.595538746281893 -0.42689392050455055 -1.3687502227803106
8.601213411369486 -0.4157903855680798 -1.2660262383290553
8.554751174666764 -1.1940152015711347 -2.107095448044354
8.562743840808555 -0.5482126791288033 -1.9624105195419708
8.604233716393438 -0.31998274686973827 -1.2113520396707105
8.552129655622588 -0.944163556293363 -2.1545507387753307
8.501560401677482 1.432081895337795 -3.0699660409622895
8.504077040762224 1.1225922623869424 -3.024409309380775
8.489725234014267 -0.42272912404049257 -3.284208742557521
8.515330270617767 -0.6909616807485272 -2.8207009687362343
8.440940581964181 0.1970703647840043 -4.167318804790071
8.443084551118163 -0.05496669571777457 -4.128508222907606
8.457260407532095 1.4041360901771873 -3.8718938797930047
8.424232374897185 -0.4118947034075532 -4.469774293610211
8.467537421266384 1.0076597789457908 -3.685857209302175
8.438887861615257 -0.25533590331228784 -4.204477581554998
8.453658680058254 -0.21753140949526062 -3.937093110286715
8.458639629413078 -1.0314376795527618 -3.8469269143650875
8.467822317909345 -0.06715444582371305 -3.680699950174093
8.461280289883756 -0.15359649550129645 -3.7991251214937978
8.465720850858533 0.02125010659257176 -3.7187411500194214
8.450073931327777 -0.0906271028804077 -4.001984987986451
8.53697523208732 0.46198601986915067 -0.20567035877562212
8.633229868343154 -0.7531561744652919 -0.21098764532450698
8.476512604672868 0.7577725350856781 -1.0162982195523513
8.597512559339151 0.7577725350856781 -0.4144237680997329
8.52120038981768 -0.45116138957388563 -1.0517495018983607
8.546130886374193 0.5547406193387869 -1.053126709263673
8.429652982637318 -0.07803040742874146 -3.004365961212766
8.47473064470338 -0.07803040742874146 -3.366898625739185
8.406904817211606 0.39165285217502577 -2.7891573160425933
8.50115332375222 0.6618510573898474 -2.7943637802252526
8.346792722227933 0.8575700223445893 -3.1621188278116286
8.465021382741414 0.8575700223445893 -2.9971283276808984
8.399308018836843 0.25537954396510626 -3.4239504963522007
8.443301254710317 0.6081036957671965 -3.426380765173021
8.52150744242276 1.4726257026195526 -0.7860809292339006
8.460488555062343 1.4726257026195526 -2.4007469271785467
8.3234595813009 -1.2836242020130157 -3.569230533699802
8.424430273959478 -1.2836242020130157 -4.267383721884015
8.621487852116667 -1.2836242020130157 0.15691924253170852
8.702517903133806 -1.2836242020130157 0.681282926194533
8.607829421621943 -1.0223280964379722 0.9487446048137143
8.679910686801058 0.4794823282024307 0.9447627005993051
8.376852299678301 0.8249535512537076 -4.618404894600646
8.340816861482846 -0.29050848264323204 -4.616414229441508
8.685862133651693 -1.2836242020130157 0.9786590679343412
8.607492869038877 -1.2836242020130157 1.0564579217240873
8.703086142487729 1.4726257026195526 1.07487165524627
8.621180739666977 1.4726257026195526 1.0284299688059924
8.705590871555074 0.9141492765134559 0.9433440790525736
8.656371027459661 1.1436878134339696 0.9460630755095449
8.730370295078364 -0.652612775460782 1.0719818446625036
8.724920163581494 0.2583395407600886 0.9733222477968173
8.596663235128991 -1.1483729927650637 1.1096054673295228
8.646216089811514 1.0035857002939923 1.106868074743446
8.563744230638326 -0.8497516953102027 0.9564509338701974
8.56601502978786 1.3190497013990958 0.9975575593456534
5.264915363052023 0.2781487312255624 1.1539744578110833
5.515087415680703 0.1560760513205987 1.1401545257120218
5.6980970289532635 0.9833178793596782 1.1300447616423468
5.799935176620688 1.1910510290756133 1.1244190481740766
5.734611305095049 0.7656825906684894 1.1280276505716915
5.831950614380806 0.34527999725988634 1.1226504606307537
4.895399688098117 0.734627923879293 1.1743871357411055
3.9042685547825666 0.5937052619549458 1.2291389148457732
5.145224294584253 -0.08761313023827733 1.1605863971612547
4.68613432463287 -0.170865711895398 1.1859473123611042
4.059754367651179 0.6315819301824919 1.220549612589054
4.963016212977968 -0.0019518773426752678 1.1706518832506885
4.782673183542304 0.07885929232490477 1.1806143406681011
4.565461359736935 0.6457478613216983 1.192613493349472
4.493706956454656 -1.0290073504239903 1.1965773293205573
4.324854376677123 -0.08451576143951761 1.2059050346447824
4.268484813523731 -0.41092259021026917 1.2090189857318365
4.548594639831357 -1.1885042598608735 1.1935452398070787
3.7899261019983568 0.3767477590105488 1.2354553875169367
3.79886349665653 -0.6166258933184453 1.2349616705488715
4.303663750483723 -0.8710590575691738 1.2070756410816414
4.377609820031623 -0.5775621905733173 1.2029907337172634
4.42686191505711 -1.0801304597122812 1.2002699637438123
4.678681127147701 -0.36687887128137076 1.1863590397386576
3.9588843892235808 -0.8324663904826085 1.3863657717331046
4.548985437792688 -0.7943831372621455 1.3537675804598595
4.803205933428235 -0.6164399325371761 1.3397240054443573
3.7356055386533535 -0.7533439993735067 1.398700077350435
4.363095100885696 -0.42371193262237833 1.3640364806304925
4.207525039549216 -0.5747942624360827 1.3726304369166813
4.115990645386237 -0.48389260925009014 1.3776869534171023
4.519340459874557 -0.9652240861406269 1.3554052197469098
4.401367206150828 -0.743841724778914 1.3619222640723492
3.735123895914217 -0.7727705062882353 1.3987266841191806
5.404389946378575 -0.7451736212164679 1.3065135722616121
4.220653386713453 0.7417766921167419 1.3719052045636817
5.338788332012609 -0.7290569166495684 1.3101375176487977
4.8734041629120615 -0.13887544723254447 1.3358461351756876
4.983959195738232 -0.3955491362709402 1.3297388860612755
4.156288294766671 0.7293539831134438 1.3754608423373966
5.2039680834514765 -0.2526314270275478 1.317585218785339
5.244377235936693 1.0223115548932942 1.3153529480834023
5.785076592162003 -0.7376722467157071 1.2854837907953538
5.594779430007063 -0.18026885848244822 1.295996131530427
5.2958884746175805 0.9005257327779927 1.312507379150229
5.101060814820579 0.27662242328724607 1.323269992324331
5.414613126363959 0.08547364267042579 1.3059488263127743
5.222155409403862 1.0079866996054414 1.3165805197908491
3.707448812445568 -0.9240832514132474 1.3614328626458856
3.7052948473360825 -0.23130804562502388 1.3224412159965226
3.8420248071196834 0.7288225508118608 1.2440462320424923
4.172691069618249 0.9275007997234324 1.3150917911623037
4.630008217902988 1.1943756006658077 1.2491351412756795
5.640763841960645 1.1943756006658077 1.223279059527451
5.880148412714751 0.12583955360206606 1.2008752347296843
5.8819345576689726 -0.23058863686629555 1.2332085035522913
5.067243189873451 -1.2836243249475956 1.1825281580755225
5.104997680690978 -1.2836243249475956 1.3226901451113366
3.652524755765794 -1.283624205738306 1.3370510308783512
3.6146246396245845 -1.283624205738306 1.2642444065318044
3.671799253559042 0.6430493257939816 1.3923264492799938
3.6349086075503365 0.6430493257939814 1.2986580588238665
3.708876028435991 -0.945203573351739 1.387268704343518
3.7050138037949485 0.14933340701987557 1.3173536914118769
3.5788284108181934 -0.5333663603123453 1.4073607289785413
3.6991173121873118 -1.0998289541770692 1.4007157643163242
3.541462879570167 -0.4083083212078442 1.2841176494887703
3.542150678391863 0.26275412141869736 1.3257271162667301
3.683244315380549 -0.30045234263915405 1.2406705365225446
3.6023307010531482 0.27088109146905226 1.2420080041822388
7.159356664556115 -0.2176231267877502 1.0287608611771373
6.882052095699916 0.23001188819236384 1.0440796273464337
6.879987621603705 -0.22676129300019465 1.0441936723334055
7.377709115360571 -1.1203404794113911 1.0166987081799366
6.899997267842815 -0.29457525917172855 1.0430883061537872
7.147176987119757 0.7711813064102628 1.0294336868411162
7.397269617377853 -0.10321067794917482 1.0156181534750763
6.935724675660866 1.0318230671590634 1.041114664650305
6.84717749121687 0.049675724683344136 1.0460061585735463
6.972755450121272 -0.32342634470627857 1.039069023003048
7.282349083975192 0.7612808635461008 1.0219665551134176
8.063239634150289 0.8823062580446446 0.9788288607317979
7.718573769401484 0.8295692955439518 0.9978687770606314
8.103491776546823 0.8826271803871113 0.9766052653553168
8.325528979715934 0.8331633020862055 0.9643395605014022
7.011118620565755 1.4088093333018414 1.0369497775828378
7.0291613637998225 1.3040593507119054 1.0359530664006333
8.50168820060813 0.5285174579929566 0.954608231787477
8.528167052928705 0.728031130289498 0.9531454958909742
7.926687267816009 0.8960504333370207 0.9863722408440228
7.839213975711326 1.147122593807513 1.1514483298030056
8.07191038156482 -0.24184438368845818 1.138593792842405
7.5032327813433195 0.7031898913952774 1.1700084904777233
7.2866232999865055 0.9524827823104625 1.1819743589401297
7.2881037446252 1.2397160712939495 1.1818925767129551
7.43211529154992 1.2005887430260986 1.1739371390433997
8.32031870825843 -0.7600730240710716 1.1248713032100799
7.581191326731289 0.23189255190590785 1.1657019306088303
7.08101589827431 1.0294113894271844 1.1933324542015857
7.999871241319047 0.8529664613676784 1.142573354913863
7.752212228264822 -1.0750697019235114 1.1562544512129427
8.118991752470528 -0.6720907177410617 1.1359929395105999
7.252381251233747 -0.5182234301598294 1.1838659467353283
6.875706763440478 -0.03535729363922918 1.2046740727039875
7.750293680571027 -0.4059414082396121 1.1563604349824388
7.946230133022165 -0.5852141520645358 1.14553657906286
7.010722830012588 -1.199263695814973 1.1972155603489718
7.048836932218328 -0.4210880017573274 1.1951100738730343
7.758978533229267 -0.2896352500672682 1.1558806692590138
7.098356790043635 -1.199477810253799 1.1923745144630629
7.05834687581527 1.4726257026195526 1.0812701703073766
7.975022279969887 1.4726257026195526 1.0736806679620916
8.01438884892301 -1.2836242020130157 1.0730328065600834
7.848003056055169 -1.2836242020130157 1.0905757433706795
6.721389549601363 -0.09988772514797761 1.1314707368443329
6.7215317662726894 0.4873489311825626 1.1340451827856106
8.564808157703055 1.3405281683614052 0.975725287069672
8.571021782939368 0.0663716953732707 1.088206068127487
6.615344231658427 -1.2836242020130157 1.192857360512109
6.592764021459454 -1.2836242020130157 1.1199971691357562
6.6853009613628025 1.4726257026195526 1.1535848195166079
6.6696268134219565 1.4726257026195526 1.0934674720027795
6.724192285027982 -0.2756972938954006 1.182206637046708
6.718473366905672 0.25995340385067167 1.0786811824628657
6.607534877215266 -0.7103896731076393 1.219488498439069
6.637658356022637 1.372307998337385 1.2178244273061656
6.560719600763342 -1.0495582942974269 1.1237572435156946
6.562112406658215 0.2657050797527494 1.1489698640992714
6.675395864856504 0.49170504552114813 1.055495812636079
6.6038659644858955 0.11243092355490347 1.0594472976407783
6.680497160385181 -0.4019027998281785 0.39123481963979856
6.6768241934831405 -0.3932852767679145 0.3247462230388502
6.680302709800795 -0.056643414012963134 0.38771484605745177
6.669640987586542 -0.16971601759292376 0.19471475477396688
6.680930263419694 -1.1058905551481901 0.3990749155939541
6.665608326493753 0.985165962891116 0.12171492009594098
6.67874152592684 -0.027950466903853832 0.3594540619056341
6.666593462251906 0.09196356429508001 0.13954799503725773
6.668498802397055 0.8398901728607175 0.17403874752076992
6.682329358850698 -0.28636266713420955 0.42440155049136286
6.674552412392634 0.8727423234065719 0.283622101716532
6.703307302784898 0.3668821230598934 0.8041474313986376
6.7137322240981065 0.4806139550213295 0.9928609173289293
6.695623657018813 0.497448675580317 0.6650569257144918
6.689597500206255 0.28375790414800667 0.5559705331467563
6.698137267344482 0.7540075427543992 0.7105586760467824
6.699724587354509 1.4465222411473442 0.7392925804456095
6.699010370740831 0.5513241659896246 0.7263637244066196
6.689238897562496 1.160134330121485 0.5494790544166537
6.708862818965739 0.26878012018989533 0.9047142168093099
6.546904898510471 -0.11887257348725022 0.8736875711257427
6.522019585975174 0.5627717841594041 0.423209918977852
6.517450682169069 0.8502045754014576 0.3405029384428522
6.553087993020798 -0.506516868330683 0.9856148733876711
6.536776567411523 0.4974693981576203 0.6903430056452259
6.549196053541685 -0.5771579474436654 0.9151624024224955
6.5368348130445 0.05835912484586758 0.6913973768111168
6.52802710370489 1.3296341325054746 0.5319589040782241
6.545229018450327 0.18184998357408855 0.8433505394447329
6.531442252613602 0.9811301384729293 0.5937804407758247
6.501191214929059 -0.5168962340646505 0.04617162887755827
6.537799418163733 -0.43008378329206276 0.708858803053825
6.50219038861766 -0.773601571848442 0.06425882053692572
6.5297507089541496 -1.2715987897610215 0.5631598642757264
6.501044768920906 -0.4444536660894226 0.043520641319113096
6.502878366870701 -1.0463001358744313 0.07671270584453133
6.517891279537147 -1.0600575739958074 0.3484786979448762
6.523915818396982 -0.09289456918519001 0.45753580209026085
6.529132483993242 -0.29777766510558046 0.5519686635024098
6.497882319450427 -1.0891563671374427 -0.013726492325578543
6.635645859943292 1.4726257026195526 0.31860094866762667
6.619341660864593 1.4726257026195526 0.837428706302763
6.627277691417508 -1.2836242020130157 0.7552139606762218
6.541754576651867 -1.2836242020130157 0.6047844636850435
6.6255050838500456 -0.7940419073744076 -0.045408769532501725
6.5588516042562786 -0.08867185499346636 -0.04172669440331067
6.632354419364246 0.4747449186332573 1.057873351451339
6.61188420873608 -0.17816142909356342 1.0590041679353792
3.5020252309130635 0.6592006793852507 0.16782382967564502
3.2788564122930164 0.8958808201397034 0.1794546921518482
3.167552802350561 0.22364943132676907 0.18525548900308614
3.1777072182722472 -0.056856315063337326 0.18472627252991755
3.3224686828555647 0.6730879816228059 0.17718175669283331
2.1949710580583126 0.601193148185193 0.2359434147835597
1.9405036226891554 -0.027764761330592636 0.2492054635041282
2.230206574366788 -0.6601352995042635 0.2341070496184081
1.8413239188535397 -0.6939790535654461 0.25437440019911767
1.7172881632744472 0.2836502281847248 0.26083875675301654
3.1456293752977156 0.9052267651723267 0.1863980696137441
0.5891627069499958 -0.41330604310627617 0.31963313546392735
1.7960890325171728 -1.2804425437913265 0.2567319013292406
1.931828085138269 -0.9283679018471083 0.2496576054511324
3.1451300775547377 -1.2285459298931531 0.3466412298857677
0.9694026996393883 -1.225496211411052 0.46003335193363837
1.5866583553876388 -0.9825356863820105 0.427863913169483
3.311387155478884 0.058974498637404005 0.33797642975379516
1.7509009975877894 -0.2949829492931615 0.419304099141832
1.673174966029988 0.2885963753816158 0.42335493737926944
2.2771168298519084 -0.34103552772604767 0.3918793719074917
0.8151419721308579 -0.28202936409680557 0.46807293971397895
1.577270782076142 0.23477778091881518 0.42835316419857594
2.7848840293475754 0.23517548798433469 0.36541612984805466
2.2398852638811753 0.08016798859607893 0.3938197649527968
1.4201306328944696 -0.01984544215125189 0.4365428184519049
3.0021481571865127 0.19253175125302874 0.35409300143104605
3.5512734679230027 0.18687750960313776 0.32547430366282337
0.4439748264328478 -0.9287786951389623 0.402669671519894
0.4466995021142317 -0.3953257729008563 0.45494977522710517
0.817824271048682 -0.058750798842136354 0.36076184696116154
3.201018112290847 1.3730849846511797 0.25394035181172037
3.516720210779444 1.4726257026195526 0.22764167585960682
3.5584493343154744 1.4726257026195526 0.3194817140919951
3.6836587806195817 0.4645956309913857 0.17340611016276652
3.686251363159829 -0.49016738595717824 0.22315165786214633
3.2499239978422865 -1.2836242020130157 0.28877793015189795
2.6872258944273324 -1.2836242020130157 0.3520348532887848
3.6868656666331474 0.004656786028653992 0.3997111820884044
3.6847944214502144 -0.945214205139897 0.27440490815474894
3.683256172664271 -0.9578661105186108 0.18134387156773846
3.6902261762478927 -1.1118398345104443 0.6030154271926405
3.684523467221623 0.2185225986920124 0.25801270839435897
3.690303249574548 -0.3484250426684622 0.6076782123918145
3.6900365594931563 -1.0792247345364285 0.5915439851793046
3.6875682053247614 -0.4880671525666384 0.44221339595750614
3.6916420862567074 -0.48643122568093067 0.688675207546946
3.683596777538377 -1.1046623702033918 0.20194979886672043
3.691596906553899 0.638130194655419 0.6859419240791281
3.7007586928876215 0.050348625791749646 1.240212040198092
3.698963426064298 0.0006351466024359653 1.1316019161041262
3.6891324049018355 0.3669967037462577 0.5368444045444529
3.692058336079977 0.6117642903710698 0.7138575060064609
3.698028448414086 0.08058453992707393 1.075037600819453
3.697947041674511 -0.2327914196402749 1.0701126526320852
3.6930310291474564 -0.31788103197747025 0.7727035301137518
3.6954755887208606 0.1382641373482117 0.9205945929759347
3.6844724782705365 0.47186922508873697 0.2549279767917868
3.5400019209045923 -1.1712610979351867 1.1957499994771856
3.530424440684898 -0.12205834814326116 0.6163312180155576
3.5399538285154937 -0.3577805150455482 1.1928405041976233
3.538474219886833 -0.4898975267939969 1.1033270821917378
3.539615482035791 -0.703902030897722 1.1723712053335973
3.5346344866378314 -0.3241445372492717 0.871030746491748
3.529883483850852 0.6409725112423987 0.5836043898294152
3.5258008890638823 0.5258744789540136 0.3366154070901605
3.5379563536835867 -0.47414346031224924 1.071997191911399
3.525925182378286 0.4484166682115174 0.3441349089970665
3.5351276851567635 -0.7627480147280661 0.9008682902196516
3.5261860752780874 -0.49738170463175074 0.35991841808583364
3.527869750800368 -0.7466493074787428 0.4617774871853056
3.530486642860415 -1.0324316102694318 0.6200943277182762
3.526445362114624 -0.4883064250362783 0.37560476349495653
3.5269718192815187 -0.40095770519227375 0.40745439023774965
3.5392472533187607 -1.273178395775382 1.1500940896803482
3.5232938436945567 -0.44170157028248314 0.18494407604666796
3.5363110657362884 -0.8343381584237982 0.9724604958588527
3.5298331310839153 -1.156550346509135 0.5805581461209722
3.586989736003111 0.6430492742852181 0.47661419449990566
3.549303072780919 0.6430492742852181 0.3654020192835354
3.579752983653231 -1.283624146778962 1.1415771730632693
3.5705780527431092 -1.283624146778962 0.9307822754428747
3.5397295778964306 -1.201139738381002 0.1607645784166637
3.549949335369605 0.14711016054731635 0.16059565125671338
3.6016345626460406 0.3886482225250154 1.2420194782846725
3.577490031841469 0.15105257835270375 1.2424185745477545
0.714224939992653 -1.1023663724931896 1.4053624650319312
-1.6531412602446327 -0.4039708208733651 1.5361399468985184
0.3978784942540461 -1.2532437797922262 1.4228380003196248
0.7444204774556801 -1.2797599244776419 1.4036944103166837
-1.6094009431846077 -0.6366281478254658 1.533723654682898
-1.4459963865376917 -0.7244132975846803 1.524696898939884
-0.5617134554906089 -0.14481857181297675 1.4758475510999294
-1.5350063080224712 -1.024273921561912 1.5296139639008328
0.42549053615777954 -0.8328823055887337 1.4213126624530104
0.15235095651720054 -0.17918951068604222 1.4364013742965405
2.9759550626152067 -0.25176059428473824 1.2804205062979008
2.8067187930111874 0.19182111928736112 1.2897694161442481
0.39858951719815267 0.4150040627238335 1.4227987221588696
1.6285096113451918 0.15500648133374428 1.3548557681733207
0.6454793654630687 -0.1336751631553345 1.4091600917470333
2.6237906660111077 0.14387560183878895 1.2998746883278436
-0.13014073038311957 0.5563583782408961 1.452006713030094
-1.5734077923255056 0.6102207427099607 1.5317353295841762
2.415249757292824 0.10351100316881251 1.311394855721301
2.59003293179826 -0.12892147545559676 1.3017395250706487
3.036993101970099 -0.9101659359247476 1.4372925873345093
1.7473426986887786 0.13128495338947593 1.5085351488834808
-0.8326946280494341 0.6262586868053408 1.6510609586541896
-0.873285976200115 0.5976413684439261 1.6533032962765581
3.6520822277703977 -0.36945288772228485 1.4033139798053398
0.16013163907979733 0.46510388486434584 1.5962154855993025
0.9482715072089553 0.07190951723951566 1.55267725002668
0.20932957963638366 0.16841989539892854 1.5934977046415582
-0.5859893357309414 0.5085327230656997 1.6374325234381513
2.81276612416534 -0.7129517322891579 1.4496792808341978
0.3076080923978136 -0.8345278351470102 1.5880686263607053
1.9473928318509168 -1.1007346706618772 1.4974840268984675
-1.653739482953437 -1.1664819597858795 1.696416923698001
-1.1796369560829372 -0.7164376987716452 1.6702266644113324
2.066685290873029 -1.1140544113783863 1.490894101184811
0.2657218958663734 -1.0009065462155209 1.5903824936900615
-0.021009677527486947 -0.5208820804815888 1.6062220512271823
-1.3795978373678124 -0.38939333074543203 1.6812728559653212
-1.564033389482852 -0.8426274816111294 1.6914614009694109
0.5481850711392163 -0.49638208995314936 1.5747787299890672
-1.0984793653695029 0.6430492742852181 1.5683133954532662
0.474061174512693 0.643049274285218 1.5341310049778312
2.7646149547343857 -1.283624146778962 1.3393046954645396
-0.40929923993807327 -1.283624146778962 1.5621665816917358
-1.990802839717806 -0.873371046881946 1.640524561093742
-1.989301660371463 -0.23293487643227911 1.6676992813462292
3.7040674651348353 0.6084255063329633 1.3002254965678988
3.7057956118649935 -0.5399121502734532 1.3315088366043206
-2.0296190906891507 -1.283624146778962 1.6420346870969023
-2.084921432421413 -1.283624146778962 1.5954886105671342
-2.0580484364522778 0.6430492742852181 1.6866697826291033
-2.123517490015849 0.6430492742852181 1.6305498248090142
-1.98989993338903 -1.243756251593641 1.6568691950366827
-1.9954495407748665 -1.1910450768853678 1.5564088279335582
-2.091158460254789 -0.6824102025877802 1.7205810025979427
-2.049161245330899 -0.28366951345546004 1.7182610024168952
-2.1548481902127636 -1.2286993759216225 1.5717119255114724
-2.1511022644528355 0.567996540957612 1.6395216011912161
-2.068723135475175 -0.8635493199943036 1.5590976566842747
-2.1138798380581405 0.08973337999784914 1.5615921898605323
5.8592102390632785 0.4640713436954842 0.8218388717690193
5.8590122436969585 0.23634945653217632 0.8182547140088764
5.862257054944954 -0.12427710085183652 0.8769930351669037
5.869253886551227 0.10337195080190398 1.0036512937117608
5.85590275885169 -0.4715805992313862 0.7619661025865021
5.85816794625991 0.39855840035287043 0.8029710471882351
5.849205675574374 -0.5155501179701525 0.6407339573860469
5.868065974077698 0.29446938147124146 0.982147428295597
5.866337087886731 -0.08615661360061422 0.9508507319489607
5.858047204775491 -0.01458825127834773 0.8007853570056992
5.825738956818793 -0.00998158876355204 0.21593400526498535
5.824951363164023 0.052708738178266934 0.20167680338167238
5.836445876292455 0.9110384913665766 0.409753129580939
5.823891552320191 0.26213647671780616 0.1824918631944072
5.823634533000997 0.440253532599133 0.17783924023400455
5.839789106455532 -0.007868283359455663 0.4702730526258716
5.834894876571894 0.230062408419471 0.3816765751254104
5.833282428823049 0.011952852017339421 0.35248767429773287
5.814075157829003 0.017869898752889024 0.004793227382086318
5.8150770193219925 0.792278013320804 0.022929155062758277
6.008045683515008 0.6094848501400256 0.6153198213682358
6.027601269969499 1.1786639187783765 0.9693195550374949
6.005188802467891 0.1674842384404096 0.563603902126538
6.004006324127368 0.3612629322053142 0.5421984066386405
6.006589078011184 0.7721645385995075 0.5889520127824439
5.977821409849262 -0.2326691672683081 0.06819305260983238
5.9938055448655945 -0.1747401464009367 0.35754154910639346
5.979512006232286 -0.09345840358741486 0.098796618027094
5.985439829419404 -0.6617545583414768 0.20610343975609902
5.974219634291738 -0.10184584774562677 0.0029928812384988346
6.033202302430229 -0.47821029233014734 1.0707107357103505
6.012942224456393 -0.3337549043269922 0.7039581341687449
6.024219999240192 -0.6046550306651174 0.9081110128941148
5.997922601644276 -0.9431190636938133 0.4320694599182655
6.018958779214691 -0.6592282096052592 0.8128711952523637
5.998778026792584 -0.8820502566333538 0.44755456313313596
6.008775642518815 -1.1520500064388368 0.6285337075147063
6.009909813928218 -0.205005499246117 0.6490647398004422
6.03133105423698 -1.1164126962009338 1.036836969583193
6.017275644167468 -1.0533070976945198 0.7824026966556809
6.003285063665892 1.1943758390843868 1.0738116002530749
5.955006308091448 1.1943758390843868 0.6273945265439318
5.846050193291409 -1.2836243249475956 0.2894020869508792
5.971548511420676 -1.2836243249475956 0.7897238173247072
5.89523485305688 -0.3038431104351983 1.1191546321980872
5.996700054301544 -0.2045126918747698 1.1135495103283415
5.920690603613182 1.0984875476869154 -0.006473510616708866
5.943583239635643 -0.34342345563792015 -0.007738141379291408
5.961491195812832 -1.2836243249475956 1.1299569702381562
5.915920796340971 -1.2836243249475956 1.2033126359928437
6.013634660081849 1.1943758390843868 1.1189607562252775
6.028638563627711 1.1943758390843866 1.2640123832797256
6.000787084750456 -0.47521302678885297 1.1133236886054931
5.9866947099157155 0.4395025984409864 1.1141021822339823
6.042062325142047 -0.3590320014127932 1.2311049468649782
6.037097528878091 -0.7941732455627902 1.1412315164222124
5.885986019899626 -0.656703651946684 1.279909515220012
6.0030552308605465 0.5335905881802547 1.2734423995332387
5.876911072066354 0.6732051167410287 1.142272110714298
5.881168331723363 0.7616884699377295 1.2193381280703637
6.216360259857435 -1.0396425967811682 -0.022807016131140008
5.9059916538577175 -0.26558295246204977 -0.005661713037663992
5.8260154265309785 -1.1911236658865827 -0.0012436867576770122
5.8459196262171105 0.9435931362415677 -0.00234322946223817
5.940118006145167 0.29560769022139 -0.007546912256052699
6.207897763751926 -0.880867992441412 -0.022339533087263937
5.81504613676005 0.1755465291510906 -0.000637724059752251
5.818438593428163 1.1559590781975615 -0.00082512928270944
6.178551890641018 -0.23426865428298826 -0.020718415875977267
5.9811120143129894 -0.2699522584505767 -0.009811492762801478
6.406019337314383 0.4246251079224105 -0.03328411434458294
6.604059605124786 -0.041902447981930324 -0.044224204130357214
6.598216743310357 0.6159709475442803 -0.043901434253490926
6.169853583329087 0.964815328455831 -0.020237906209792156
6.649825396410618 0.18726694931555476 -0.046752386258768305
6.497637865647411 0.7853491126594403 -0.0383452816369005
6.1231838391552635 0.405050551305734 -0.017659788147310285
6.070032585419998 0.45356156102286743 -0.014723620192584207
6.109961795471213 0.3578488570346349 -0.016929379394311488
6.44044462803482 -0.03679050126465666 -0.035185827443373105
6.1751551567291525 0.6544129577999779 0.13971315522267683
5.986030113749042 0.7313896098285461 0.15016075244023694
6.5625333798185865 -0.23758752662571492 0.11831370657262055
6.357580555444513 0.1785496921486054 0.12963565803880925
6.220500159905672 1.130022861743765 0.1372082181632992
6.590965019557411 -0.3024176955404867 0.1167430932072755
6.486900512687924 -0.400961694022294 0.12249179806034333
6.428491568255983 0.5641634437961474 0.12571841001882386
6.617527691992462 -0.13558710387298634 0.11527572485536142
5.902297199804274 1.0489921345302227 0.1547863046408493
6.111151944596773 -0.321116758009804 0.14324880428560646
6.347402246052524 -0.9705107595383876 0.13019792560109286
5.9544927989273 -0.1435644019910201 0.1519029287136118
6.579915772281445 -1.2123344699915588 0.11735347289722839
6.3136566992848175 -0.2771234481600289 0.13206208845842746
5.901854478865705 -0.8687276543421465 0.1548107613176229
5.904663376717221 -0.9620890990570925 0.15465559290144967
5.908092770941836 -1.1740479779736044 0.15446614718345042
6.365552613783808 -0.7674313636297608 0.12919526763248634
6.262627927298191 -0.6357054895922796 0.13488100681964657
6.085015104004939 1.1943758390843868 0.01558862066205647
6.2068298321487605 1.194375839084387 0.07837751315573203
6.494690810554125 -1.2836243249475956 0.06418669998894856
5.993143017147847 -1.2836243249475958 0.07476013718250382
5.817872852532373 -0.04603520504524172 0.0735532602358961
5.821813891047523 -0.1141756650166581 0.1448949394165606
6.6608417574116165 0.0705196733592246 0.035431626590378656
6.661875888705674 0.225971262232954 0.05415173367071681
2.349428107813925 -0.4828462368891686 -4.285439079912192
1.7308490725670518 0.03823919052869362 -4.251267674669936
3.1308147601201917 -0.8947011084460126 -4.328604267261598
2.0294798285978297 -0.9323407458243551 -4.267764568357994
2.340908065433559 -0.06127165057818462 -4.284968417629329
3.2582851414508376 -0.37829761539206724 -4.335645957665955
1.9022150851622182 -0.4211413851422007 -4.2607342377564175
4.6545497803419895 -1.0098946956583283 -4.412778097752046
4.953161112235992 0.9102965265877018 -4.429273918416268
2.8092204632729434 0.28239837063173556 -4.310838826768163
-1.517506145015004 0.5144620833523638 -4.071822759491894
-1.663392001076239 0.14689206616610262 -4.0637637655355405
-1.8673909656392613 0.40593576962797046 -4.052494500187255
-2.2501033145062213 0.6524563129684329 -4.031352789881589
3.7228240159125527 1.4508156814301079 -4.361307910667122
-0.4535005209730223 1.296723016241144 -4.130600321108846
-0.6360693038092804 0.330085120502688 -4.120514897084746
-1.529390015064394 0.9788174709863603 -4.071166273390419
-1.6955732918632052 0.7473114415608384 -4.061986013840058
-1.6051539099450194 0.8051650426696595 -4.066980941190041
0.31027188885594414 -0.29634960792530135 -4.333036387012351
1.5777798010639172 1.3714929839519154 -4.403055776690725
2.429938721110077 1.421234269803354 -4.450130549886164
-0.12768954372456776 0.030984188698515935 -4.3088426191339835
1.185618192995077 0.079041771514335 -4.3813920725135755
0.05734744441633444 -0.00812289015543044 -4.319064391205592
0.12774827839077196 0.766376597227774 -4.322953458390311
0.8708505338572087 0.7340629188042512 -4.364003747619468
1.8697624923241187 1.019092850690222 -4.4191854194659514
0.6607332634976777 0.2492921435647435 -4.352396496185564
4.201517385547154 -0.9964472723460878 -4.547995703749407
5.112934833787716 -0.23403986138050947 -4.598344023356232
0.13594622164413406 -1.0771633197306092 -4.323406327344966
