2.997834340262525 -0.5451166875418827 0.05250956040944749
2.904593110004164 -0.5805587626442279 0.062410888558803945
3.1886578506022367 -0.6725067674741761 0.032245926078901976
2.9448167166178374 -0.8465267446109143 0.05813952569358807
2.996123955248322 -0.876277815878463 0.0526911869628556
3.028063589395034 -0.9391232362708106 0.049299502857222205
3.099034066600855 -1.2776157796023355 0.0417631159843318
2.9677990002896575 -1.2537468386924804 0.05569902666085588
2.7660083286274597 -0.994949281397032 0.07712726878153858
3.105503898549301 -1.2565227360938729 0.041076081621794436
2.9212641427326895 -1.157479461453306 0.0606405841003963
2.7959274004693437 -1.2074558303065404 0.07395014909521713
2.8209489814116573 -0.9133631476976632 0.0712930961687483
2.935272455742311 -1.1668716708505606 0.059153035045725555
2.9384871481757315 -1.2088173926631365 0.05881166541134433
2.5628417053290797 -1.2431640144303144 0.09870162382490294
3.076243297246288 -0.8507984945434905 0.4797238093206681
3.171908816041609 -1.2189905646330257 0.4695650448819505
2.9845926250971893 -0.9376886435984072 0.4894562353895095
3.212135506358687 -0.819169869366525 0.46529335455688414
3.0808393362750293 -0.9300633848623763 0.47923575387046946
3.126505302002732 -0.8839849235493552 0.47438646444481103
3.107346527082669 -1.0731897734973768 0.47642094336467916
2.9678127731378505 -1.1063609966072956 0.4912380954109471
3.0824975431277206 -0.8200590184790932 0.4790596681394842
2.809821238092295 -0.8119868378369653 0.5080152875283402
2.948204475885704 -0.6570732803840069 0.49332030930930165
3.073038071027227 -0.6479655085675217 0.48006417373349175
2.7665423688842554 -0.810734847376317 0.5126110901016708
2.641747147267242 -0.8663094348976041 0.5258631507756657
2.600615169702312 -0.7095954563286379 0.5302309739604721
3.1517243337595864 -0.5674561216653794 0.47170844412759977
2.8579421762451336 -0.6093603628780586 0.5029053034774442
2.9114740145216627 -0.8305888659316668 0.4972207335104294
2.682984373621775 -0.7867592977007162 0.5214841511745861
-0.8071068866411547 0.47142742009811556 -1.4645792741027837
-0.3653554367213767 0.49855458823467025 -1.5124036883733218
-0.5100283893099544 0.616433104147461 -1.496741262772694
-0.26313297602120367 0.5999279750255685 -1.5234703850625273
-0.6538612833455668 0.4497914797453135 -1.4811697826760497
-0.08418766882756007 0.6194127770472493 -1.542843166984469
-0.4864929014394336 0.3886315410452089 -1.4992892361232815
-0.5591176507557399 0.42840241670953844 -1.491426814623074
-0.5951629895574431 0.40960303782826396 -1.4875245134179789
-0.6938418740192286 0.4044396940453683 -1.4768414475194696
-0.09953172925066611 0.5177750586263129 -1.5411820050292564
-0.36716695582501496 0.32477295757385016 -1.5122075716654149
0.0013200691173791967 0.24341653151581766 -1.552100312566126
-0.4170228326765045 0.2877654295772556 -1.5068101290338185
-0.11297963287039725 0.33880313031008574 -1.5397261227364034
-0.21299048319104044 0.110589348360917 -1.5288988570009956
-0.06268462726122526 0.2872468047867679 -1.5451711058472204
-0.043953770612411625 0.12385528543161325 -1.5471989254461773
-0.014006015432760088 0.1315597681256578 -1.5504410966952913
-0.2965242299538213 0.21416459690828998 -1.5198554175024293
-0.06629834697133274 0.5041801545690394 -1.4441956290558655
-0.3081408298736906 0.43910599161763947 -1.4180135416113575
-0.35831984165777353 0.35864818103956264 -1.41258111609768
-0.25351531906760383 0.18481257427749356 -1.4239273491585753
-0.0937416175658683 0.270489554499306 -1.4412245955887657
-0.10174714590220146 0.17972227615216826 -1.4403579098004546
-0.1610188697416608 0.1001761447422228 -1.433941098998946
-0.39814657235792955 0.1631839153676659 -1.4082694379619516
-0.43176432509549656 0.1412460419230742 -1.404629949434958
-0.028492569028704784 0.1792483948348472 -1.4482885170055861
-0.5994541387554494 0.47505674616511384 -1.3864756974933303
-0.8375720200122672 0.3784234260684658 -1.360696838814956
-0.8963423847088863 0.6314380080668998 -1.3543343056108383
-0.6470777212607673 0.39670924577270644 -1.3813199250805965
-0.2643244870355011 0.6465316236610981 -1.4227571387904816
-0.31115489419031606 0.566427160215848 -1.4176872362635369
-0.6163942609657392 0.4415776464446195 -1.3846417444355066
-0.8247982152500315 0.5470994002195283 -1.3620797425515958
-0.18628614663072907 0.6004861248335148 -1.4312056405920737
-0.4410622982675138 0.38913457784142247 -1.4036233423917084
-0.42295925157909214 0.07804468685935717 -1.471782211555204
-0.16099907846532158 0.07804468685935723 -1.4893841658020812
-0.20500626895451346 0.6471364158933284 -1.517682001515412
-0.6044982663103975 0.6471364158933284 -1.4024404124320378
-0.9237643305614047 0.4029417577594223 -1.4273610099852025
-0.9188294044108114 0.10612923384067569 -1.3817773779863824
0.035544452857894704 0.11522717759167875 -1.5078780186494487
0.03616196636759761 0.43128315885081026 -1.5021740815039626
1.9881945644657568 -1.0219157571110349 -0.7679244779810215
2.7779058358042694 -0.9506765888804702 -0.8517842509413869
2.3416272581482143 -0.9698930333641413 -0.8054556447816995
2.754750919414381 -0.9598376286729488 -0.8493254206044701
2.4851938231322266 -0.9917873651355283 -0.8207010388658598
3.015624558649776 -0.9567164178472505 -0.8770277023770787
2.8797299389719835 -1.1841818856456232 -0.8625969954005921
2.641378822149231 -1.2007010683858057 -0.8372863897817473
2.7787463792165537 -0.9792296612077871 -0.8518735086008324
3.0491666050403294 -0.9293586044894855 -0.8805895464294883
3.142158852053704 -1.1115798718511267 -0.09082750674974466
2.710838286994737 -1.0753559104093333 -0.0450253940387601
3.0015888394062786 -1.067984340702987 -0.07590031782198814
2.631140767927947 -1.0888369969758138 -0.03656228087701241
2.986429882886218 -0.9733060931294985 -0.07429058183590592
2.2637417239032627 -0.8718782161425398 0.002451978556747725
2.3622759448160657 -1.0773415573580967 -0.008011411918316391
2.6825208024721108 -0.8776678609021953 -0.04201834841453955
1.7196573282720227 -1.0078626516455826 0.06022852999380496
1.7364948757160703 -0.9039564331403843 0.058440543729566974
2.8379475875589524 -1.2970166078384224 -0.7366347620626076
2.238151468274554 -1.2970166078384224 -0.7683769280608891
1.9832869774701247 -1.2970166078384224 -0.7595705197845186
1.878927454187788 -1.2970166078384224 -0.39084895923389024
1.7936646236431733 -1.2970166078384224 -0.385913781274708
2.2714232782092534 -1.2970166078384224 -0.5511437730264772
2.2430089591196074 -1.2970166078384224 -0.6918858615048302
2.6114802113253357 -1.2970166078384224 -0.660892200385944
2.3108312916475966 -1.2970166078384224 -0.41046047147921655
2.4795119013260996 -1.2970166078384224 -0.5058590234659587
2.7187164246882802 -1.2970166078384224 -0.1596225857949744
2.6012749899336765 -1.2970166078384224 -0.2551979972807501
3.0059081099070077 -1.2970166078384224 -0.6147569435708737
2.52885715959768 -1.2970166078384224 -0.22276420403650865
2.919563007072651 -1.2970166078384224 -0.7242843709700634
2.6641496804327987 -1.2970166078384224 -0.26865527794480726
2.609993147202168 -1.2970166078384224 -0.05833845964319373
2.7544547825106274 -1.2970166078384224 -0.05676062232594614
2.8160174218145504 -1.2970166078384224 -0.09651918419526934
2.9821210907201743 -1.2970166078384224 -0.41883506065376525
2.0158341120689687 -0.8676016458694633 -0.5795188646052656
2.3937673164776263 -0.8676016458694633 -0.6828470700046587
2.7105324345276065 -0.8676016458694633 -0.639150824315285
2.3405039237485092 -0.8676016458694633 -0.7574554465569354
2.981622618235521 -0.8676016458694633 -0.7018086190407079
2.6545098869209545 -0.8676016458694633 -0.5603304414041423
1.91223787675013 -0.8676016458694633 -0.6731148997838865
2.0582077944692183 -0.8676016458694633 -0.6151386021531088
2.627192934638045 -0.8676016458694633 -0.7238680083956134
2.286564641632911 -0.8676016458694633 -0.6341623827332146
2.350720441651688 -0.8676016458694633 -0.21895527694745695
2.004483212839928 -0.8676016458694633 -0.5536392002572208
1.830220110736629 -0.8676016458694633 -0.08789438978903663
2.157264600137318 -0.8676016458694633 -0.10155142857662919
2.392603502928801 -0.8676016458694633 -0.18798453244361724
2.1562642144138326 -0.8676016458694633 -0.47141263636968417
2.3805373278899524 -0.8676016458694633 -0.1392050380499094
2.124206692379804 -0.8676016458694633 -0.31869350205294605
2.3480184447072627 -0.8676016458694633 -0.1587339593805258
2.3754100179596054 -0.8676016458694633 -0.23748896230804195
1.6585274403312038 -1.0420886438506054 -0.4881237380076314
1.6329793583150976 -1.1348466658725551 -0.7287111468440199
1.7046268051666278 -1.243531155918212 -0.054003997521208325
1.6650451185315132 -1.2511569280500447 -0.42674647654224085
3.1230417766404197 -1.1466197341012159 -0.6292189412270022
3.1265799757190034 -1.262537339454936 -0.5958995653252385
3.1270218299801065 -1.0078178220818437 -0.5917386043695361
3.120656926368671 -0.9938257957859472 -0.6516771808310972
0.8381144624326387 -0.5415438133550835 0.2563784258188289
0.8485174568079926 -0.42625715587922774 0.47263441889084407
0.8560330181276152 -0.30072596366395593 0.62886685717026
0.8381959307768223 -0.2337547262650715 0.2580719783710743
0.8576937499677166 -0.02555073662586571 0.6633899185455802
0.8510149518036614 0.01670879876979603 0.5245519957916158
0.8420553524458133 -0.22968763331120085 0.33830109660347796
0.8407243555701577 -0.006236166979011526 0.31063251958275223
0.8646328284325782 -0.9658929757844761 0.8076385118139223
0.8649355387822424 -0.7604362000591421 0.8139312122536043
0.8693202211321204 -0.11452541724920651 0.9050793761057971
0.8695074800697832 -1.0733523358805819 0.9089720887291756
0.8628422472440014 -0.5437433350274781 0.7704161603312423
0.8546823775396859 -0.9161150758635404 0.6007899294043464
0.8679479187845238 -1.2449311311505027 0.8765521467075352
0.8548143947981399 -1.0805332753871377 0.6035342857213373
0.06651975560130946 -0.8817062154808739 0.9484031448852748
0.0536725535983702 -1.124699387758812 0.6813373052723518
0.058918389788757686 -0.43202464573050214 0.7903870147995442
0.059301277558227616 -1.229096327371644 0.7983464322359327
0.062155532199246855 -0.20870701079534687 0.8576802787807674
0.06422582364418578 -0.1399153930567102 0.900717207978236
0.06552359814325137 -1.0103055475648763 0.9276951628778235
0.05459625172120164 -1.0488124223026452 0.7005390127465879
0.03353552452960973 -0.1722190968417684 0.26273155949767313
0.050755626091994466 -0.4203683049024488 0.6207006239621311
0.05008888665817285 -0.5754241234901107 0.6068405378004998
0.05158222990261546 -0.5393264566464229 0.6378839484447868
0.04329212154179629 -0.5175281510474793 0.4655503345296528
0.060499159072235575 0.04673225695496164 0.8232478257239582
0.05908143155326706 -0.15730015817446208 0.7937763042121904
0.03404399205615111 -0.4797272921335045 0.2733015113720661
0.666584072522723 -1.297016461306459 0.3466452259888556
0.6358641079989305 -1.297016461306459 0.3592312924696732
0.4503233672373707 -1.297016461306459 0.4792954514665352
0.708068674090573 -1.297016461306459 0.7042661581204092
0.5088675468811733 -1.297016461306459 0.48507396240579637
0.776365626945694 -1.297016461306459 0.856455463934382
0.5425183839684851 -1.297016461306459 0.6710425955074057
0.5564401850134892 -1.297016461306459 0.9038935651489755
0.12267362938101084 -1.297016461306459 0.6015352509610652
0.12660163039463163 -1.297016461306459 0.8899546344337534
0.7056182342147117 0.04919524949157861 0.3760172314907815
0.6994225269279459 0.04919524949157861 0.38464335372516223
0.53927807500711 0.04919524949157872 0.8464229952563893
0.4875623114216077 0.04919524949157872 0.9112859707563974
0.795157608655501 0.04919524949157861 0.6801884799630428
0.24698058669506096 0.04919524949157861 0.4577074992454591
0.09937493403607667 0.04919524949157861 0.33798074321456767
0.2215696326133201 0.0491952494915785 0.45917672792873104
0.7295276274772613 0.04919524949157861 0.3035879565192395
0.06443930418623645 0.04919524949157861 0.4999705816889623
0.5720506472188067 -0.3606541801097043 0.2170155759347655
0.4477089393536275 -0.2508930728767469 0.22299703230184958
0.5295185526398145 -0.03814442903982607 0.21906158183489988
0.7371436547462386 -0.09296371375287016 0.20907377878568079
0.6536034930000977 -0.6115448748924981 0.2130924772655624
0.5037695354046454 -0.6394995836407509 0.22030023800049192
0.5428699752789271 -0.20755114691439447 0.21841931180881213
0.5439611643035184 -0.49466562656631347 0.21836682017385806
0.674852193481078 -0.5553116453323913 0.21207030878351107
0.4687036998638002 -0.5367454725006666 0.2219870795990514
0.32973523913554414 -1.0670099474882426 0.22867215573736682
0.11861841579303661 -0.6283571566748484 0.23882792799481245
0.4492883791770539 -0.8050533682416957 0.22292105336806733
0.3689389350790526 -0.8225069212749592 0.22678626241371402
0.5417435947459646 -1.0726488493983175 0.2184734963308549
0.6810303994690445 -1.0442743661137295 0.2117731062584826
0.12135355106719203 -0.9894820248732397 0.23869635434521957
0.5349742742879728 -1.007914084746517 0.21879913441038157
0.6344577080257476 -1.2261294422275375 0.2140134850223629
0.7439420785228992 -1.2038725691504482 0.9251503781557275
0.6505957797024543 -0.3868063160647212 0.9296408007420786
0.6784378177673935 -1.0838621971392493 0.9283014598345474
0.5463286843617925 -0.8953391163075681 0.9346565681141898
0.6127980487074194 -0.9075301597678075 0.9314590601387303
0.7241609248854175 -0.4854563148145617 0.9261019503144553
0.49928419426218235 -1.169658756467674 0.9369196427467793
0.8383069814009153 -0.6804589039837157 0.9206109556333909
0.590468228985021 -0.6038191117481816 0.9325332358489369
0.6477887284557657 -1.0567391516006535 0.9297758339086685
0.5077076789178111 -0.5148043249496632 0.9365144311183442
0.5017829556667966 -0.07883225574270991 0.9367994398593487
0.47113064195900856 -0.31852962561822484 0.9382739690430085
0.4045508489874764 -0.6170797982519993 0.9414767891861942
0.3795120485212149 -0.40262094229542017 0.9426812803826272
0.7125890591151683 -0.13278974503427954 0.9266586147786876
0.49251630617295195 -0.12600491046704682 0.9372452119222239
0.8168583577776494 -0.03468705705789321 0.9216427414158066
0.21417317774514155 -0.3897655653696166 0.9506349047803422
3.0557883914401898 -0.7897300832647062 -1.1051793524836353
2.3308189020074614 -0.5286949323575737 -1.0236383519879908
3.0944560168809243 -0.4572330082901912 -1.1095284967044432
3.1036112787699173 -0.7731165343597372 -1.1105582355073993
2.95730939699605 -0.7330385327317626 -1.094102919817395
2.470456093228784 -0.4851045149481811 -1.0393440560825142
2.366428130367338 -0.5637806385518118 -1.0276435027559412
2.157286910515198 -0.419362087288789 -1.0041203275600208
2.7959956376446473 -0.3784019829471396 -1.0759591420130086
2.060448205197166 -1.2491504705990766 -0.9932283865425942
2.238431270537732 -0.928574114779214 -1.0132470458526672
1.7123479744717693 -1.1503109796653876 -0.9540757856402806
1.8847544925355175 -1.0846121374562132 -0.9734672223556224
2.3214024452882387 -0.9710218426046567 -1.0225792352759064
2.1642235889548442 -0.8529719173315574 -1.0049005310145522
1.9237705720871061 -1.0030828328958459 -0.977855558980028
1.7685207528153624 -0.9366987467402865 -0.9603938233143083
1.9983350602828254 -1.0539011415231023 -0.9862422056700592
1.6621416114168968 -0.6055026309422176 -1.780445155343533
1.6390161260484906 -0.4233302153640393 -1.7778441145530266
1.705769597009208 -0.9980395565287166 -1.7853522164635676
1.5928017787556776 -1.0159347040062263 -1.7726461521967654
1.9954907273890774 -0.9678326292657251 -1.8179386234506933
1.6511707709840433 -1.0735603533817295 -1.7792112092006782
2.0660512567165408 -1.1351045699370508 -1.825874924551262
2.2518803001379726 -0.8913033210807809 -1.8467760608647208
2.0489261273099544 -0.7015003296885277 -1.8239487742707543
2.7427654200617253 -0.7965977103896513 -1.9019884034397547
2.762426795136366 -0.7371092113881267 -1.9041998181517874
2.911401244372453 -0.2984495373980788 -1.9209557310778658
2.5248208773856353 -0.3408573520381038 -1.8774750738149732
2.7758777506750913 -0.4542328870614844 -1.9057127154367592
2.9910835145039867 -0.5317303353302208 -1.9299180006947203
2.8358692351179196 -0.4586618836601483 -1.9124602623804448
2.2435666472776816 -0.7189890934989476 -1.845840982103638
1.8181909879967617 -0.36421812724038016 -1.7979968212805373
2.5896200967978076 -0.640083895384826 -1.8847633711284777
2.363491363635742 -1.2970163822414094 -1.3987122260329816
2.4096554827309347 -1.2970163822414094 -1.2794658396552008
2.830344558575736 -1.2970163822414094 -1.3181019139636334
1.9608213028049164 -1.2970163822414094 -1.0455204876210697
3.0078067038471747 -1.2970163822414094 -1.4819908553396264
2.2696326329209127 -1.2970163822414094 -1.3241684642577591
2.159646274951164 -1.2970163822414094 -1.297004415640587
2.0213378462755083 -1.2970163822414094 -1.1498398536865075
1.9508487848713687 -1.2970163822414094 -1.2920844026374079
1.772532060226655 -1.2970163822414094 -1.7865163651529907
1.6596019925175218 -1.2970163822414094 -1.1018632462212092
1.9008958596544494 -1.2970163822414094 -1.2483444129382641
1.8046792251493318 -1.2970163822414094 -1.3893668698399402
1.813715094208233 -1.2970163822414094 -1.0922500654739178
2.2784721509467913 -1.2970163822414094 -1.5146463012341307
2.029315313034886 -1.2970163822414094 -1.7978135215383848
2.4749842163876092 -0.2974191903827971 -1.2691158615645133
1.8131185057401518 -0.2974191903827972 -1.058123966415145
2.035594756573372 -0.2974191903827972 -1.3161270837373993
2.3211103006602762 -0.2974191903827972 -1.3300679073681365
1.6727825282258775 -0.2974191903827972 -1.3315337243304133
2.342305009624629 -0.2974191903827972 -1.2069892318071793
2.3627891669297756 -0.2974191903827972 -1.2174181036736782
2.494593549994606 -0.29741919038279724 -1.1735324564049323
2.51278356608921 -0.2974191903827972 -1.4803354347534388
2.681631946526539 -0.2974191903827972 -1.68608744280926
2.6050040338601006 -0.2974191903827972 -1.5006428416096875
2.698281742279452 -0.2974191903827972 -1.8476577302460262
2.5155552523753597 -0.29741919038279724 -1.4757143129500856
2.9505649255967628 -0.2974191903827972 -1.9140337451706988
2.637892675613875 -0.2974191903827972 -1.7669389197780407
2.870808420522569 -0.2974191903827972 -1.7890692244465305
3.090543926680282 -0.5534703705049274 -1.2371949839610157
3.0788682475853255 -0.6567744054914131 -1.3410017804051633
3.068139237758161 -0.5965962142008542 -1.436391875500944
3.091222241424601 -0.39042020969007707 -1.2311641843804586
3.101973480228856 -1.2471935668318967 -1.1355764546219558
3.0172438801548696 -1.2516539008119307 -1.8888952360086102
3.0853677241670807 -1.107697568206583 -1.2832158617422202
3.079800983948129 -1.1163166996103435 -1.332708954526503
3.0860400652792497 -1.175816203574184 -1.2772381728725333
3.0252735963665076 -1.2024501922702884 -1.8175041751969245
1.6629629207093197 -0.6747389789468874 -1.0533797873420456
1.6555665581485117 -1.1972488938964512 -1.1191397912383987
1.6396760687035088 -0.7663821188731615 -1.2604198649540095
1.6687918692791779 -0.36781195346626844 -1.0015554375330435
1.6535633290879628 -1.084714548329057 -1.136950214908678
1.6250555932423087 -0.6483814042339009 -1.3904084255999634
1.5978040483553397 -0.6621756877657423 -1.6326980217650502
1.6497450020581745 -0.33556274562318494 -1.1708984155670557
1.6275518037938133 -0.6954841976267088 -1.3682149738534433
1.5997719597725482 -0.55436135084923 -1.6152016022210656
-0.47061436151463687 -0.6586105400209359 -1.8621225874881588
-0.5040709904530701 -0.6936899586367496 -2.1711602009677033
-0.4909173550411582 -0.5878845772757908 -2.0496605691979384
-0.5088763555994971 -0.8585697501193121 -2.215547176699249
-0.49650800074792456 -0.8350817162119677 -2.1013011517027715
-0.5171217377870723 -0.7747015397053661 -2.2917094594613303
-0.47524081283209785 -0.5893685254592558 -1.9048569429624789
-0.47634181060748926 -0.7479239378347379 -1.915026817685344
-0.4705775897491364 -1.2583238680036868 -1.8617829280839011
-0.45900746544525994 -0.7295245346528209 -1.7549101284031123
-0.4657460212151861 -1.2011211939692223 -1.817153912654925
-0.45742067638219314 -0.8044693763999125 -1.7402530179677478
-0.4553130664672528 -1.1487912449799977 -1.720785105063027
-0.467746480927501 -1.233030080929762 -1.835632083199047
-0.4554908504890976 -0.9619655127745286 -1.722427289334695
-0.45741611395093346 -1.1486905433973964 -1.740210874963121
-1.2212096804835486 -1.0820505350846077 -1.5995394661131757
-1.2462360322392865 -1.2733757468719777 -1.8307069287683368
-1.2444585906987407 -1.2458985520878025 -1.814288768624334
-1.2521688270725773 -1.0224510560657645 -1.885507929787235
-1.2509043802073283 -1.2329469056167097 -1.8738282820161656
-1.2246189004808745 -0.9262118099024472 -1.6310303020171486
-1.2436054944548196 -1.2705036880765928 -1.8064087509520546
-1.2375620085562622 -1.1579651814824856 -1.7505853007585426
-1.2476952349873511 -0.6627926153254771 -1.8441855292476177
-1.266166484062281 -0.5676288318005923 -2.014803756882176
-1.2353009753866129 -0.5421829285960535 -1.7297002230649012
-1.2755999640254843 -0.8272307518787151 -2.101940453768171
-1.2531730214784305 -0.8195119164311377 -1.8947836354545748
-1.2828291004565844 -0.6834009321946436 -2.16871571299397
-1.2582678604025024 -0.8752971401545675 -1.941844469499011
-1.2655940156823031 -0.6930737026911343 -2.0095158881531887
-0.5601742602168684 -1.2970163922127682 -2.0226215304852895
-0.8479381056490163 -1.2970163922127682 -2.1087397933202907
-0.6867950259838118 -1.2970163922127682 -2.1455344071052997
-0.6349299322728924 -1.2970163922127682 -2.1450511913197023
-0.5510424949843041 -1.2970163922127682 -2.263983773558669
-0.8382619050836654 -1.2970163922127682 -2.1336381897603633
-0.8834384535992685 -1.2970163922127682 -2.175961243666871
-1.1503224690329494 -1.2970163922127682 -1.8900438589564688
-0.828659890439152 -1.2970163922127682 -1.824467648006255
-1.003961584328917 -1.2970163922127682 -1.8009805529740732
-0.5982607772694172 -1.2970163922127682 -1.7054661878820214
-1.0285471404737876 -1.2970163922127682 -1.5995419433475964
-1.0327086769618348 -1.2970163922127682 -1.872175201208399
-0.5762931703001597 -1.2970163922127682 -1.6748560508309507
-0.6001411522783988 -0.4647108216467899 -1.7054335128203322
-0.6421263812012734 -0.4647108216467899 -2.113031423694973
-0.5815965460051833 -0.46471082164678984 -1.7848932406069742
-0.6206987173608487 -0.4647108216467899 -2.0798354531987826
-0.468546202898088 -0.4647108216467899 -1.6639236511815765
-0.5760038507092127 -0.4647108216467899 -1.78219270498969
-0.6350624056540621 -0.4647108216467899 -1.8890029214930688
-1.120725771627862 -0.4647108216467899 -2.1483768872243383
-1.1645927784745886 -0.4647108216467899 -1.9149507785828348
-1.2114521403784675 -0.4647108216467899 -2.1130625678949233
-1.1414643384335115 -0.4647108216467899 -1.9334432028898256
-1.1548059458264668 -0.46471082164678995 -2.082208219350837
-1.2112609264609018 -0.4647108216467899 -2.1554859120167396
-1.0899600278873465 -0.46471082164678984 -2.158675412288937
-0.7184466387736894 -0.6798225533107917 -2.276758219066056
-0.791051103531165 -0.4724942187211932 -2.2688980099138485
-0.7596472155848334 -0.7725739222959976 -2.2722978163620495
-0.6573885325412846 -0.9968078559884712 -2.283368411524984
-0.7409586961163035 -0.6001146103649335 -2.2743210482976948
-0.6485982590937691 -0.9949155794185086 -2.284320052557438
-0.6821427970956662 -0.617770344606498 -2.280688497866004
-0.5953565482644223 -0.7190857393758425 -2.2900840366889637
-0.7091479156744738 -0.5380754955050505 -2.2777649052065354
-0.5307470628149431 -0.7161830672575901 -2.2970787038977334
-0.879351335038171 -1.0288009990536546 -2.2593385662880086
-0.8689805422607203 -1.178542244401969 -2.2604613154271593
-0.576813596323271 -1.234113318437736 -2.2920915093842535
-1.2474062026989823 -0.8947369290862491 -2.21949269387554
-1.1823861988109483 -1.1213300805316875 -2.2265318040920317
-1.1997546892002868 -0.9273070951167037 -2.2246514794098746
-1.2618097095619865 -1.0888224836216271 -2.217933360343551
-1.0828420803688066 -1.0197090309222694 -2.237308518629367
-1.083757769467488 -1.1826578717607 -2.237209385499496
-0.5973747009330196 -1.247102339131358 -2.2898655500968617
-0.5046750311489714 -0.5579462129557986 -1.6501305038197152
-0.7011095535754702 -0.8464269491380451 -1.6288643676923602
-0.7892558430778946 -0.8828063696260883 -1.619321589933521
-0.707937332574471 -0.8278320583254785 -1.6281251876549279
-0.4764738544135927 -1.1312293103004925 -1.6531835825555599
-0.7178635364617301 -0.9325970978037466 -1.6270505700139613
-0.4741392556921406 -0.9325789492419576 -1.6534363278143864
-0.6928710563509888 -1.1483470707203198 -1.629756273052459
-0.5891606250765301 -0.6681719218163016 -1.6409840354745893
-0.7695491318825761 -1.1171026520061194 -1.62145505200386
-1.0671425018928664 -0.6703410977449701 -1.589237389654793
-1.0303446786603268 -0.7963996272641285 -1.5932211472366424
-1.1607834209101728 -0.8319862920261017 -1.5790997595360454
-1.0320814702246084 -0.7694997425929847 -1.593033120990672
-0.6315995201857734 -0.5062690507263556 -1.6363895715822996
-1.10046743264522 -0.6250831180149683 -1.5856296097948177
-1.180428618818086 -0.7821416748805641 -1.5769729569363913
-0.8810709248065013 -0.6920758233057523 -1.6093816262119436
-1.1529201891202026 -0.517225036896672 -1.5799510384028193
-1.1970013111574547 -0.7763001744624541 -1.5751787858969415
3.3331048835428314 -0.6668418761735517 1.3489554912477184
3.3321612510304117 -0.7382420818703015 1.3400692767242608
3.3365343697897876 -1.0779944771530703 1.3812510619223202
3.341210458275141 -1.1412281100194364 1.4252859217481864
2.847773058487933 -1.0475657491533503 1.4873969002374257
2.843423330931266 -0.8244378189683809 1.4464353906683776
2.8381493689868407 -0.9204092057006058 1.3967703392740105
2.836840757170328 -0.8251505998940292 1.3844471041412478
3.2837767587840347 -1.2970166358979753 1.3230318078731347
3.010962177413382 -1.2970166358979753 1.4246645153430584
3.2869503299304865 -0.5530704107252546 1.4407178941742043
3.047654751028196 -0.5530704107252546 1.3425091464625458
3.297740359351322 -0.8078323626426148 1.4459237682549713
3.333946344246451 -0.7207637267182514 1.442079033562907
3.2526382512770735 -0.8374344189368221 1.4507131874656507
3.172808163282356 -0.835510220935551 1.4591903911565005
3.1889937914905677 -1.0956090481164376 1.4574716298394086
3.1907302494707865 -1.0508667216457108 1.457287234351834
3.3359129821912434 -0.5682876007183828 1.4418701951303943
3.102635975864514 -1.2154327656152226 1.4666420167417424
3.2630043636358783 -1.1769431496959732 1.449612403937094
3.2456380767630457 -1.1022478832719809 1.45145654008767
2.965439934131093 -0.5801354333242158 1.4812109445804478
3.049060596111395 -0.8779604833225377 1.472331217623143
3.044479882752508 -0.6035476916345127 1.472817646251347
3.0972417366394454 -0.686264370554904 1.4672148341570395
2.933659192204566 -0.8316593781681795 1.4845857601358976
2.998751015942269 -0.6692653321069211 1.4776736213384316
2.8695272865871053 -0.7891215908051584 1.4913959646672712
3.084274238385695 -0.7469732344559421 1.4685918603738346
2.860473968285778 -0.7426848686774244 1.4923573418277665
3.085658170115086 -0.8779573930208673 1.468444899854825
3.2615395010713684 -0.9100972940920894 0.6750222251459814
3.2654124558767736 -0.694414629915391 0.7114939519967652
3.2660499305461403 -1.2103665689207683 0.7174970693021849
3.269932072694478 -1.1781816619841146 0.754055313625738
2.7711163160007195 -0.9136189596403937 0.7655181503582091
2.775398005678962 -0.9140691737153163 0.8058389452682717
2.7680339637260376 -0.7584772964911255 0.7364915502896525
2.7740604298051856 -0.6879356505952333 0.7932429547747905
3.1663149823411207 -1.2970166358979753 0.7269841703264681
3.2234687646410274 -1.2970166358979753 0.7672506480715449
3.046116223976464 -0.5530704107252546 0.7329088091349483
2.912229657410652 -0.5530704107252546 0.7101243236819641
3.1867220602457746 -1.0255550615973121 0.6639655695646101
3.0401403589545293 -0.567243932511182 0.6795311660760335
3.1396018777290973 -0.9324674859322172 0.6689692892795418
3.1910779807170577 -1.0078378192542081 0.6635030118244927
3.0286124723137844 -0.7347963879332087 0.6807553190944429
3.082955392882046 -0.8396615205981349 0.6749846126053893
3.04554788870717 -0.7670908687320019 0.6789569373318475
3.0536672456990903 -0.5850721554915015 0.6780947380685347
3.209709413933144 -1.1028170798959571 0.6615245290444702
3.1003542921952336 -0.6798346413579883 0.6731370133207157
3.199701842822976 -1.2826429569031963 0.6625872388683298
2.849522989781196 -0.9964394464783214 0.6997729358909834
2.9528637522880703 -1.0366673545054867 0.6887991199358202
2.849347539918009 -1.2069386311424162 0.699791567014475
3.0057935238993645 -0.9409494769712804 0.6831784765602449
2.9913788421292247 -0.9378800837265803 0.6847091800402704
2.7784250555331376 -1.160658239029034 0.7073228670730626
3.0643164791798134 -1.265005001659381 0.6769638897426068
2.87212903422185 -1.1772588755639455 0.6973723868225606
2.9723713154470754 -1.0386023965827444 0.6867276004052149
3.27321872979469 -0.9344827141323068 0.7850058581153967
3.3146869962848626 -0.8659584767296349 1.1755137169456513
3.2727499770106525 -0.9090595672489623 0.7805915996592716
3.276253880035673 -0.7493869243428433 0.8135879552743226
3.30857357588787 -0.866278096598863 1.1179434611471688
3.2818984350807567 -0.9386948775199171 0.8667428925617919
3.291356867625484 -0.8515155415913055 0.9558132240116758
3.300685657476928 -0.816637169675902 1.0436627064883157
3.316158286189854 -1.0320365701351113 1.1893688963188478
3.321402640304345 -0.8533590955023869 1.2387551299267292
3.326647009114151 -1.2518443820645124 1.2881415019208156
3.3194534646920713 -1.296832993158253 1.2203996870964
3.3124258587439965 -0.9616395697344734 1.154220519656745
3.328103582693043 -0.8322656451069561 1.3018580972276517
3.3173265762640916 -1.2063681763262022 1.2003707175666969
3.3116111145265754 -0.923069176613128 1.1465480499161798
2.8206492221970376 -0.8670574620414129 1.231970953369594
2.8339005816903873 -0.7879959184633671 1.3567593870400552
2.8226512815877483 -1.2058422889365699 1.250824404263248
2.815753668780373 -1.196822764982279 1.1858693859702443
2.8198039459639648 -1.0149103550991405 1.2240109627590485
2.8140756763097654 -1.2267616892043312 1.1700676825885645
2.8289785719249068 -0.916549440876942 1.3104086794425989
2.821512996720301 -1.2135236862280758 1.2401051429111747
2.8021552260959646 -0.9348804623067581 1.0578124599019048
2.8146328489447905 -0.7816877552110384 1.1753145933258131
2.7999235389793764 -1.0108317378982397 1.0367965981058866
2.803493153998012 -0.887483239694856 1.0704117654557446
2.7961027885857983 -0.9032185363669273 1.0008164817035126
2.813207522233889 -0.852431613474188 1.1618922506740026
2.7841950287723667 -0.9925020808644001 0.8886807648823118
2.789024663158929 -0.8720292221116794 0.9341615708782995
3.145197322453341 -1.2970166358979753 0.8621028065655542
3.245031947121936 -1.2970166358979753 1.0481489273543592
3.1731804662715897 -1.2970166358979753 1.0939277558792342
3.038271410581219 -1.2970166358979753 0.889182180930363
3.051194274882165 -1.2970166358979753 0.9265821825616765
3.1868031069008387 -1.2970166358979753 0.8852331518544294
3.201558447004229 -1.2970166358979753 0.9867030397316016
2.9055208869307965 -1.2970166358979753 1.1344402557897788
2.913834380803602 -1.2970166358979753 1.2517296983403083
3.1678410519756235 -1.2970166358979753 1.2985856666194855
3.2676538189398685 -1.2970166358979753 1.3135258331689204
2.9859274060258314 -1.2970166358979753 1.085537734498414
2.9699724649584502 -1.2970166358979753 1.2270619803167933
3.1715006182998464 -1.2970166358979753 1.1959574282792953
2.8241304219039702 -0.7072558486312618 1.264753511184903
2.811191410914732 -0.6530609169308468 1.1429064723658109
2.7912847220052073 -0.625998372170979 0.9554446100692346
2.796925414691982 -0.5762430642592621 1.0085631754173627
2.815136520003415 -0.5530704107252546 0.8369354746415764
2.8008774517038457 -0.5530704107252546 0.8930508125486305
3.2886518428515137 -0.6150124498852111 0.9303399278753123
3.2902505351074387 -0.6210885436434979 0.9453948588533815
3.3173608129942624 -0.6160844373772776 1.2006931258399156
3.321340762858394 -0.7156587043087181 1.2381724282376185
3.285149778424852 -0.5530704107252546 0.9934929310248869
3.2702887254098383 -0.5530704107252546 0.8845011331705677
3.2954686753249307 -0.6936293087177203 1.2786242985741647
3.291519055540462 -0.6774767047505936 1.2414306154094277
3.2593035562992636 -0.6272807240935081 0.9380563320207161
3.245698840498728 -0.6398304599225277 0.8099403318372916
2.8480732327355263 -0.6179432202815222 1.1413488921926171
2.858040223620439 -0.5782820277126902 1.2352083321663216
2.8505217234528324 -0.7161695355031694 1.1644063997353462
2.844545923702697 -0.6396524210292508 1.1081321215284952
3.0854266053887587 -0.7290867800661047 1.2649193432230599
3.1008005544069315 -0.7290867800661047 1.2567048227862245
2.9343229380536684 -0.7290867800661047 1.0925544011236
3.091912173638346 -0.7290867800661047 1.3321847828163218
3.0755404345566006 -0.7290867800661047 1.3076675950016843
2.99580163195673 -0.7290867800661047 1.2682843753521162
3.237630517793834 -0.7290867800661047 0.972691253833075
3.199132496740747 -0.7290867800661047 0.8929352675842129
3.1564254159761846 -0.7290867800661047 0.8252087203046067
3.2132508509584716 -0.7290867800661047 0.7951636775002302
3.23912019008911 -0.7290867800661047 1.0747657801709367
3.1428410791433556 -0.7290867800661047 0.9779449977870874
3.177682004528061 -0.7257209140545657 0.7763141118335497
2.9047689513810564 -0.6611900268703872 0.8052949084170633
3.1880930347068537 -0.6567949440414022 0.7752085584554418
3.0815138868791387 -0.5851714999185454 0.7865262604400935
3.033157104807097 -0.6306451775782951 1.3425930439631948
3.053901669002759 -0.6257888927365 1.3403901665696967
3.1216535117762874 -0.7211935961417336 1.3331955587965016
3.137154088872745 -0.6709278745627342 1.331549543457259
1.7819545058547828 -0.8479883423508879 1.5008814238043815
1.5405410508020514 -0.808044830937712 1.5265149221873733
1.780056934865304 -0.9640279333564116 1.5010829096034217
1.5153148791888558 -0.8529630022063688 1.5291934598401926
1.7600072010430634 -0.8364840386771586 1.5032118084230819
1.5482814609325084 -0.972424213296596 1.5256930384588157
1.6803993659319851 -0.7506894794658101 1.5116646401517344
1.768650494025976 -0.9709126472422215 1.5022940557789601
1.505572369313474 -1.1660918128283828 1.5302279283253162
1.3149118636328112 -1.0676911197725216 1.5504724327710115
1.3665211427754986 -1.0950507181133493 1.5449925129663657
1.4432077017703755 -0.9107869968628125 1.5368498649703664
1.3763834950756269 -0.8940562521027271 1.5439453195044992
1.4128298313712986 -1.0191752571414183 1.5400754146464746
1.3403499120167246 -1.0986602910469105 1.5477713978515906
1.4607565118913441 -1.0204048895222713 1.5349865164848355
1.4280384981378775 -1.194621432634223 0.949720292340723
1.4449652684315073 -1.2045229734180143 0.9479229926050631
1.2364135941960295 -1.2148940135970951 0.9700671974635606
1.2456788994220251 -1.0115261698135911 0.9690833989984892
1.4704773228838042 -1.0296521803904615 0.9452140996545566
1.4422689258100796 -1.1374053816156109 0.9482092926963785
1.4809481305042955 -1.268061157227605 0.9441022998580213
1.2616165600909173 -0.8336473895657951 0.96739112381484
1.6160926707859884 -0.7554669668452206 0.9297525306870186
1.6888093770821326 -0.8345850112524076 0.9220314052308937
1.5898720639272588 -0.9879728347543147 0.9325366583710679
1.3771119296327226 -0.884859315947075 0.955127721314154
1.629568344890711 -0.8416624781466188 0.9283216714571646
1.2831674188522573 -0.7647831806808802 0.9651028341953148
1.4448563068442475 -0.8688887984677863 0.9479345622446684
1.2815798040111404 -0.77050656275921 0.9652714085709795
1.3917939638358898 -1.2970164980038383 1.4700154476289216
1.5167698438405686 -1.2970164980038383 1.419609016946206
1.5302738956666775 -1.2970164980038383 1.2571842661326076
1.76866521994903 -1.2970164980038383 1.2442332840537615
1.625709870259747 -1.2970164980038383 1.4140768552539966
1.4756051984431313 -1.2970164980038383 1.3894326515197157
1.4537027678613013 -1.2970164980038383 1.3608032481772445
1.5099978086442374 -1.2970164980038383 1.5296907037361909
1.5714360681823343 -1.2970164980038383 1.3030718343026855
1.4233822564114473 -1.2970164980038383 1.335958794316849
1.277792445708609 -1.2970164980038383 1.2742990351266277
1.4558218843717947 -1.2970164980038383 1.0285332310528668
1.3271562120670202 -1.2970164980038383 1.4279462879533424
1.3590200611453345 -1.2970164980038383 1.3221227123747277
1.4294637111698467 -1.2970164980038383 0.9892947712521174
1.2465025702614267 -1.2970164980038383 1.0764586276913568
1.5091719370223213 -1.2970164980038383 1.2017825112913763
1.3472812636075167 -1.2970164980038383 1.409937366362251
1.3618577821914273 -0.7395905290499947 1.3905597050830751
1.315053325866427 -0.7395905290499947 1.4917143530296306
1.547190519153852 -0.7395905290499947 1.4159989808967026
1.4938338194077767 -0.7395905290499947 1.3053876274747924
1.6244127716523415 -0.7395905290499947 1.5052941918323848
1.5755993946387523 -0.7395905290499947 1.4132347326917
1.433618966512964 -0.7395905290499947 1.4601145467810395
1.6931247896369492 -0.7395905290499947 1.4529642907221039
1.6712146197204198 -0.7395905290499947 1.4647920579883718
1.5335428779835174 -0.7395905290499947 1.166500414560062
1.683070895056331 -0.7395905290499947 0.990010506744248
1.7011865454389001 -0.7395905290499947 0.9457493794131668
1.5493305391770038 -0.7395905290499947 0.9825246427736131
1.696186243875064 -0.7395905290499947 1.0481130393578961
1.6011977210669623 -0.7395905290499947 1.0576150170613732
1.727051009906491 -0.7395905290499947 1.2996189090757173
1.5379026230742334 -0.7395905290499947 0.9785135598737875
1.5442855616507263 -0.7395905290499947 1.252372203073887
1.7960881930015669 -0.9187969190991884 1.455224420435861
1.783455166381625 -0.863222620102345 1.3362479873122675
1.7769326793311129 -0.8893006295993136 1.274819933077047
1.7945663358193662 -0.8159218973495068 1.4408917395424383
1.7852622582057434 -1.1332529176073538 1.3532669761918608
1.7856856400144216 -1.120690822197362 1.3572543387583622
1.7724709928148783 -0.771067892175432 1.232800268004919
1.8000773800933956 -0.8470244785834817 1.4927941387248476
1.7708628336506786 -0.8669812479882653 1.2176548046881972
1.7810624569323155 -0.9693232673560355 1.313713717074081
1.745467350182114 -1.1252644328010508 0.9784829790095028
1.7528582901494119 -1.2486935676490312 1.048090025776238
1.7691822717608774 -1.2588578995496897 1.2018274605918609
1.7687601264073836 -1.1052290671039617 1.1978517428221291
1.7765371756046653 -1.2617406445138806 1.2710951231739673
1.7458926313794658 -1.1635225026327125 0.9824882298062962
1.7474013099425902 -1.083741947030395 0.9966967959378067
1.7552366339717738 -1.0282391692540986 1.070489002145011
1.748014418460772 -1.1240956416817887 1.0024709834548184
1.7613967354331697 -1.0355755397051711 1.1285041493939998
1.2656270519563249 -1.091956417523306 1.2815217118695703
1.2775418107186924 -1.1793254471694412 1.3937335785679994
1.2746536318078274 -0.9651428193289529 1.3665330323034093
1.2842718356474072 -1.1573979797923812 1.4571162013503658
1.2856164489282953 -1.0101208892146294 1.46977961898602
1.2710433761779416 -1.0380164202461142 1.3325320481821423
1.2795974186947492 -1.0867252344270129 1.4130930647979711
1.2834105892488723 -1.2954804734154783 1.449005079002497
1.2796086219336567 -1.0052198954910654 1.41319857565018
1.2772517946019568 -0.9926245535661009 1.3910022391862624
1.2486960025964182 -0.9835371604671029 1.1220669808313728
1.2662086614688466 -0.9406392220684683 1.2869992452708974
1.2474422570404644 -0.9010344444484804 1.1102593452758134
1.2682686412223934 -0.831930075362448 1.3063999044127816
1.2494677733106259 -0.9992514212420981 1.1293354311820392
1.2748229496589203 -0.7910974200588293 1.3681276489058465
1.2731671082640574 -0.9123563570860632 1.3525331196686328
1.2470657763088835 -0.8689723207221084 1.1067136918128067
1.2525616043521892 -0.9088864664001391 1.1584727862344857
1.2331181520638108 -0.9089666819706462 0.9753565251456034
-0.6711442573732027 -0.6635544251687372 -2.2152116383287805
-0.646219812272979 -0.8472412491141263 -1.9804769103701716
-0.6503528842003671 -0.8092260699339175 -2.0194015688974787
-0.67250284510855 -0.8868561471945214 -2.2280066161580674
-0.6425553107749977 -0.5812042663919086 -1.9459651786636638
-0.6472292649559545 -0.780931592096276 -1.9899837860487488
-0.6615868388205209 -0.5096819562631978 -2.125201287649793
-0.6748762390627094 -0.6085685693136818 -2.250358888472576
-0.6417654610033058 -0.856510854371446 -1.938526490639085
-0.627729404393837 -1.1303266750319 -1.8063369908694107
-0.644927722611925 -1.138750654230189 -1.9683082015437152
-0.6365243012505077 -1.0764825066644041 -1.8891660252881588
-0.6250760430036026 -1.275510217977187 -1.781348026757751
-0.6331791383012517 -0.8214123053026945 -1.8576617766794803
-0.6330635151432058 -1.2851606383788325 -1.856572854922526
-0.6289074312817036 -0.6538109599962029 -1.8174314734121255
-1.2497479985155713 -1.2219002851185101 -1.84459547853424
-1.250329403155188 -1.2827390837794577 -1.8500710612148379
-1.2581655039875712 -0.9915574812100938 -1.9238702968547607
-1.2522517880018085 -0.8282871404954952 -1.86817579663377
-1.2512305992056285 -0.9789014853645198 -1.8585583919813566
-1.2583485982615823 -1.0794242131154084 -1.9255946515767182
-1.2559446648384633 -0.8537596621063286 -1.9029547630721841
-1.242300799712572 -0.8830151416048923 -1.774458864537565
-1.2700241150593468 -0.8286045241542952 -2.035552937439413
-1.2586354631247954 -0.6254524497800837 -1.9282963023198514
-1.2651166899625599 -0.6422198364653141 -1.9893355355899658
-1.282470950688631 -0.636155797932713 -2.152775389680056
-1.2627373943883944 -0.6091695468906843 -1.9669276826933795
-1.2623879461438796 -0.8357828255351913 -1.9636366309455073
-1.2788194540510016 -0.797634391387058 -2.118386135819877
-1.276950366880712 -0.6574910733914399 -2.100783350013227
-0.6667988795332469 -1.2970164529275579 -2.1492621772414173
-0.8037518488149888 -1.2970164529275579 -1.9336176609822973
-0.655354221664558 -1.2970164529275579 -1.9171779580419317
-0.6530272562068151 -1.2970164529275579 -2.002250654997487
-0.6734200342770191 -1.2970164529275579 -1.861854077183075
-0.8128529413866128 -1.2970164529275579 -2.048280434088437
-1.185508714426247 -1.2970164529275579 -1.7739506352628183
-1.1722026802289207 -1.2970164529275579 -1.8068697148488688
-1.2055241820299525 -1.2970164529275579 -1.8397706403182184
-0.9435645532203455 -1.2970164529275579 -1.9421669713483836
-0.9648348439705698 -1.2970164529275579 -1.8754638022146066
-1.1643662991836816 -1.2970164529275579 -1.8219888673957827
-0.7855448320665814 -0.4833360203314143 -1.8788924179739976
-0.8429740510342312 -0.4833360203314143 -1.9014439304507078
-0.7441156884748018 -0.4833360203314143 -1.7285964311072275
-0.7357196137272448 -0.4833360203314143 -1.9507164296563857
-0.9207164649013102 -0.4833360203314143 -1.7703879604336217
-0.8013785743736989 -0.48333602033141426 -2.0804839059827205
-1.183326171536282 -0.4833360203314143 -2.073136763189073
-1.0130191810984435 -0.4833360203314143 -2.137958844360142
-0.8890438635423443 -0.4833360203314143 -2.1005565252901683
-1.1842812664987978 -0.4833360203314143 -2.0749856116527448
-0.9848480296710316 -0.4833360203314143 -1.969104718625969
-1.1898086873606366 -0.4833360203314143 -2.012616401894522
-0.6808664830218357 -0.7185252443898429 -2.2557496104598846
-0.7185650850234848 -0.7335470110106348 -2.251746723167353
-0.7714927368126586 -0.837065076054063 -2.2461267952782187
-0.8441419429552404 -0.8913185089353493 -2.2384128067311644
-0.7509761113438623 -0.9532436572672036 -2.248305277636028
-0.8947194255991873 -0.7680179085380587 -2.233042422902214
-0.8804066317153811 -0.7251714459913814 -2.2345621742382344
-0.7078429831407926 -1.143807658479963 -2.252885210089854
-0.9500876400075692 -0.9207743303393123 -2.2271633528545816
-0.8417470671395242 -0.7107751712088599 -2.2386670978045973
-1.1230082045327996 -1.0345784660303716 -2.2088024191964792
-1.108721759164865 -1.0257470563500097 -2.2103193728123256
-1.138515129108426 -0.97569275433502 -2.207155873488304
-0.8907057921542546 -1.1187675971303952 -2.233468595796182
-1.0932154961741953 -1.2085728736686665 -2.2119658482725377
-0.9518555715825568 -1.2081813509652353 -2.226975631547694
-1.1263694641243915 -0.9396308491362484 -2.20844551621887
-0.9562009346921821 -1.1163146623450908 -2.226514235160311
-1.0639931323388603 -0.9532623877732295 -2.2150687174147166
-1.0214296877737976 -1.224538496744478 -2.2195881601083323
-0.6828838939890658 -0.6838213994966571 -1.7291551651012542
-0.8801200733848022 -0.8995355978233328 -1.7082123673790415
-0.7659970862858536 -1.2097392205664785 -1.7203300967002557
-0.8779466677906469 -1.2748165233177278 -1.7084431424521855
-0.8445828066443614 -0.9575502483848473 -1.7119857612423048
-0.7098435734948186 -1.2572817623014552 -1.7262925507661233
-0.7201022725060496 -0.6860440447756773 -1.7252032685718348
-0.788701420262254 -1.074486861685392 -1.7179193205670835
-0.6329592641516804 -1.0614223998249759 -1.7344562281579607
-0.8889210521236853 -1.2576815308746303 -1.7072778678462956
-0.8000745265038186 -0.5021048466997096 -1.716711709142952
-0.7108008797847339 -0.51999050574751 -1.7261909027213818
-1.1724764573162378 -0.5332818517616766 -1.6771695808566518
-1.1429389690786163 -0.7176622326352439 -1.6803059103235778
-0.9939061978695888 -0.5275581433924006 -1.6961304065745884
-1.091953028226575 -0.6045762117966029 -1.6857196647839021
-1.2074085858977601 -0.8273417575285884 -1.673460441361401
-0.9959627925883394 -0.6505438309745443 -1.6959120346342915
-1.0015081354858066 -0.7048746617049249 -1.6953232228100221
-0.9354589973867502 -0.8737237819072292 -1.7023364074254046
1.5629337660357616 -0.6810987150941039 -0.20323412669095195
1.557034679330454 -0.8760464692978693 -0.37142246464469497
1.557221615836245 -0.7375216999067162 -0.36609273450467206
1.5615282728823021 -0.6979877679420442 -0.2433060173571833
1.5495316698857478 -0.8735127770155814 -0.585340101593645
1.558873492247235 -0.7970603099553619 -0.31899623263101196
1.549508686062889 -0.7677529803391028 -0.5859953913290785
1.5508614686583824 -0.7581500328060544 -0.5474263267069115
1.5547464381706808 -0.8944800088119083 -0.4366623054412866
1.5529975103241023 -0.8884373590208666 -0.48652583218898365
1.5619538633885208 -0.9878688894408137 -0.23117204417360418
1.5664354494506418 -0.7073323467035535 -0.10339794136094427
1.5640416535533856 -1.2378189770832904 -0.17164724391785613
1.5632448386677464 -0.9995043721062802 -0.1943651624647839
1.558757913364306 -1.0440870873082406 -0.3222914919132519
1.5663374024437409 -0.8106886898340765 -0.10619335088037785
1.5654288308487185 -1.0620508447852148 -0.13209755505850923
1.5609596595555513 -1.2009651030434754 -0.2595177014944139
1.5609258537271713 -0.9606977679611323 -0.2604815364696238
1.5602121474590618 -1.2873915199983845 -0.2808299525918155
1.0730601079654436 -1.0924272105663986 -0.34497562951620586
1.0810873349278034 -1.011943979105399 -0.11611207340639951
1.0771986396676583 -1.1294397522586876 -0.22698231913849803
1.0755095001202881 -1.0551697667756978 -0.2751412269891859
1.0779835410275522 -1.111791021115952 -0.20460406606766135
1.0811905278097393 -0.9558898286063422 -0.11316995030014915
1.0787078762167308 -1.2497851697558562 -0.18395260971937907
1.076505078536959 -1.0360366019110907 -0.24675637903435807
1.0809111752290366 -1.1390341319447688 -0.12113454695698334
1.07269830103447 -1.00759413907062 -0.35529107484197897
1.0728204866012068 -0.6821692175902 -0.3518074529835421
1.0622812465918514 -0.7993661685812851 -0.6522907903235783
1.0703086424225972 -0.8982830550830168 -0.4234224196222004
1.0800764824686988 -0.6950302180460248 -0.14493239823062473
1.0636948036050367 -0.7444373617900629 -0.6119889916677678
1.0803513679161965 -0.7194358803972596 -0.13709516361247798
