# Exported By Aspose.3D 23.9.1
-2.2605438515016 1.0229852480416808 0.7434377574150435
-2.1538553722131404 0.29420622371750427 0.9496643156667445
-2.1144868837017143 0.49579369779470106 1.0257627655034105
-2.128526395163358 0.8920626944576725 0.9986246888565238
-2.143777321827803 0.2709884952198778 0.9691449724229064
-2.130224347318902 0.22737010072659855 0.9953425835022311
-2.14945907696739 0.31459855666232495 0.9581622607460644
-2.3563127093536735 0.7981592606138008 0.5583185948377039
-2.177671155980464 0.03631281357738231 0.9036289128645127
-2.250712433153994 0.486126924255429 0.7624416796949509
-2.413544548038538 -0.9514752067618537 0.4476906695629944
-2.2527153145956995 0.04046876107377373 0.7585701525247841
-2.3326516135197526 -0.7329635272211363 0.6040549891591569
-2.4006582387288815 0.036022662118616045 0.4725996310105753
-2.2610659703047586 -0.6068612368642166 0.742428512888437
-2.3355078098235498 -0.010490806939573383 0.59853402253416
-2.294786550714015 -0.9246122751405061 0.6772473491261477
-2.27599725966567 -0.9922478517448909 0.7135666485550303
-2.244069508563227 -0.8616299273091026 0.7752823114502833
-2.2885494814750156 0.03190539082280408 0.6893034711302742
-2.2972489350836125 -0.8982811116929297 0.846593901056679
-2.340330442251471 -0.09254549669530054 0.7633182652356666
-2.4647367537399982 -0.44430770184428237 0.5228435146892577
-2.317715456903917 -0.4232524419914629 0.807032550266657
-2.372136098883269 -0.2348592681999972 0.701838608351846
-2.435179425810837 -0.9771135312321075 0.579977200074978
-2.4181135214780136 -0.7819432648599414 0.6129652296868282
-2.231471723817504 -0.5694381618549955 0.973739849534659
-2.421090429927664 -0.3706813248928156 0.6072109290547798
-2.44173559308111 -0.07383167183148473 0.5673042683724353
-2.3808488217773673 0.48853262083874927 0.6849971005579949
-2.1701983390985147 -0.482096770092977 1.0921799972179378
-2.2234717720478088 0.4247242179387626 0.9892035859253822
-2.332995749312211 0.7681302625307951 0.7774960704756015
-2.2051640909929207 -0.009419401020635765 1.024591943494069
-2.158991138979326 0.11993536888608608 1.1138432763614086
-2.2057639020914683 0.33240211197896613 1.0234325214151383
-2.292318510696847 0.5468096429325455 0.8561243063898901
-2.3791273047274126 0.49501826141822886 0.6883247563513059
-2.3018205848093 0.4768095764949201 0.8377569995022786
-2.4358000141642684 -0.7457234011468323 0.43318070231848577
-2.469737971554682 0.32546936510645585 0.4507380375707905
-2.3299300523594644 1.071161346510053 0.6506592073863079
-2.1554873370038945 1.0711613465100527 1.1130041844335177
-2.075359035493455 0.5400399739180018 1.1349524213496536
-2.0915066614799107 -0.6283575096982428 1.143306173454166
-2.271395256707534 -1.0119642447680235 0.811842592175183
-2.355204909522153 -1.0119642447680235 0.7234464390665157
-1.999660775979487 -0.2377203487519755 1.2477184213910621
-1.920080171565169 -0.028135084690083828 1.4015459849588112
-2.02307786416361 -0.5922401972736848 1.2024537033391511
-1.9516060756109244 -0.10542508994998612 1.340607103628115
-1.9993297246956878 0.5385046830435725 1.2483583362645112
-1.9034258206778787 0.04838352141441862 1.4337384800855926
-1.9106454791261411 -0.33087995378356017 1.4197830385925179
-1.887974102689976 -0.7016916761910296 1.4636063121849854
-2.009575483295561 -0.6578068672229765 1.2285535095241125
-1.7580032986744125 1.3398196755321063 1.7148370268019053
-1.9065522385478118 0.6762608437509396 1.427695182888167
-1.734212568039206 0.9647819859191477 1.760823987519836
-1.880333474606137 0.32588532341176896 1.4783754787540793
-1.8402232182695395 0.7808569381537488 1.5559077248553237
-1.897089497180218 0.5929899503874165 1.4459864544858332
-1.7914198337533507 0.6297117478883331 1.6502435971352112
-1.884269144499854 0.4012560928589447 1.4707679151371273
-1.8393220202513654 0.21790105111722233 1.5576497208661364
-1.9235087035862817 0.5354046911063238 1.3949187077308578
-2.277839436753448 1.2360640761325101 0.7100051690436251
-2.2808945380093504 1.3392543833807489 0.7040997252975391
-2.465547697592664 -0.5989006987809566 0.34716921625157726
-2.425989267208776 0.7876888848333374 0.4236347948847433
-2.569498587726619 -0.4549242696559628 0.4944469131984406
-2.613479233410952 -0.8782719132125489 0.4094332893443837
-2.3643776809458847 1.331281144891945 0.8909411288318513
-2.311460201127541 1.133383944943962 0.9932294571313127
-2.009615138246121 0.5341647564201168 1.5766893458783857
-2.0744033393511785 0.8126621733947783 1.4514551735913601
-1.9483977251905333 0.1610535119973461 1.6950212631535362
-1.891004526169445 -0.39451072245072405 1.8059610585439887
-1.9711379386275845 0.747920831228951 1.6510649291475736
-1.992305815951748 0.647334205107908 1.6101478863751364
-1.8565187914520027 -0.5341674396304934 1.8726212276702414
-1.9218758342755853 0.09785479747235167 1.7462874968128783
-1.973889035626275 -0.14259182807587428 1.6457471189655366
-2.1634434696645153 1.1458003701069783 1.279342553856203
-2.174096637258449 -0.07237847669742331 1.258750214462524
-2.0788871782656333 -0.7419282985760235 1.4427880112756548
-2.1656671434812633 -0.316913311514219 1.2750442411213703
-2.0594523847619097 -0.38427549893795265 1.4803550410201813
-2.1656041309303955 -0.5463882364058039 1.2751660430006795
-2.188064627023199 -0.8998808342587177 1.2317503964884833
-2.148026394928357 0.14309050285208016 1.3091434213095106
-2.047573691975346 -0.4616611433594662 1.5033162937421838
-2.2020328764656414 -0.44614657777652755 1.204750076563156
-2.0631338242267527 -0.3870160889861224 1.4732388992483674
-2.4863779880681625 0.1734812443096376 0.45934658930076777
-2.4985515740188613 -0.9931944947185158 0.4656444285341429
-2.1012453755703944 1.071161411516325 1.0686834263448972
-2.437583570176463 1.071161411516325 0.6328556650639567
-2.0779750468145206 -0.4471261485586091 1.1363057825936678
-2.1488416411613587 0.6183554250014415 1.1729676519902994
-2.2744987705622406 1.398035588562493 0.8358909690215813
-2.1620753472376477 1.398035588562493 1.2206913005164157
-1.8098336302837243 -1.0119641152024315 1.7161860538799742
-2.0047387010867848 -1.0119641152024315 1.5607756402848028
-2.460866353471954 -1.0119641152024315 0.3873901047736582
-2.538010877515813 -1.0119641152024315 0.4260236406996156
-2.522889102770498 -0.45379930029336435 0.33607387647725806
-2.514241635148383 -0.28580880542042153 0.33160022663567046
-2.5846390001346617 1.2224768149721634 0.3680193466001833
-2.5675283861365106 1.345829368897226 0.35916740300845085
-1.7466603520514885 0.3948689721056978 1.826118422054995
-1.7732409006703458 1.3589779645278441 1.839869507611413
-1.7877490743799533 -0.7398614370060557 1.8473751140911325
-1.8224262445118613 0.18992245998786814 1.8653148767414807
-2.666255813384699 -1.0119641152024315 0.2764186110932405
-2.601422512180589 -1.0119641152024315 0.2416524466710802
-2.6695330544359033 1.398035588562493 0.28501167312342535
-2.579898727459979 1.398035588562493 0.26678744128055476
-2.599895674027581 0.8452971827106583 0.37591217947644184
-2.6176922022589504 0.870206443423327 0.38511897147407426
-2.5590965892775586 1.3142274258794373 0.35480532750488025
-2.4835856833944585 -0.22526105312951417 0.31574078665847694
-2.6798673169432687 -0.9495939424392967 0.28110713070896065
-2.6774454178002687 -0.04988018563330693 0.28578860865344746
-2.684753611558787 1.3830089832697468 0.27166203034674063
-2.644107977968625 0.5754995118501638 0.35022914894124524
-2.558802724937199 0.725486151098172 0.17451025737303127
-2.592779463526068 -0.8268732843672606 0.19208766128455657
-2.6095992193524986 1.0310896442165491 0.20078913335437065
-2.685601544064651 -0.06045688716443859 0.2401079030528277
-2.490639679321482 0.08444425978632517 0.2986674820855594
-2.496921301474237 0.22530046279883742 0.2865252423358947
-2.5479933471441756 0.3793510216425945 0.18780408274525484
-2.524448691689086 1.008519264527084 0.23331539246858335
0.6845960856944417 0.7518046155211314 -0.9748688815220083
0.6336155039579301 -0.0650486039608289 -1.0734132346863654
0.6601793855722694 -0.44399646161422435 -1.0220658305953514
0.6549173002958348 0.3443905301129808 -1.0322373267258194
0.6976546763809782 -0.48652586722084623 -0.949626910390847
0.6379841863484139 -0.8790927328246139 -1.0649686668590346
0.6888607713135074 -0.5618807836319569 -0.9666253371867899
0.669408542696143 -0.5269635168638406 -1.004226071062498
0.6833760679851616 0.5008205575950786 -0.9772271491587223
0.7140560664783365 1.1388687248419926 -0.9179233808686856
0.6369093577061332 0.3525191517435722 -1.067046287194234
0.6276362337709726 0.2856964829137071 -1.084971033614867
0.5936632616242863 0.4983241162655329 -1.150640048193181
0.572593021961105 1.2318810246829637 -1.1913683621492206
0.6005313562214485 0.38458277151663023 -1.1373641710553524
0.5552635911059617 0.33193565213770115 -1.2248657742256994
0.6622731442956472 0.9184224426058856 -1.0180186406251803
0.5835839802187233 0.8161206073962838 -1.1701230794305704
0.6377730316935913 1.2122046541899356 -1.065376824203819
0.7842896534707662 0.4408403240790274 -1.1303758897958842
0.7931627823700333 0.7406095575395313 -1.1132243250600897
0.7004165171349686 0.010700587865085376 -1.2925008339715929
0.7543448122157969 0.9589689668164632 -1.1882586151702577
0.7533258721185747 0.9804749386824064 -1.1902282041661807
0.6994854293129689 0.2122850448544775 -1.294300606434614
0.7372026302464368 0.30246740316916054 -1.2213940792323803
0.7160442907707949 0.4874340700761512 -1.262292688205407
0.7314799347768244 0.6643873678182299 -1.2324559248253597
0.6985415258835774 -0.6282428711908492 -1.2961251511873544
0.7570453788415461 -0.42554544828537255 -1.183038478752687
0.8031322868665616 -0.4022737404719715 -1.0939534901948234
0.8150156806420081 -0.6882080831667906 -1.070983149074529
0.8419376381855825 0.03075306011362039 -1.0189435920180476
0.797512746349003 -0.4102894044134302 -1.1048159395141708
0.7510870240895271 -0.662359380922028 -1.194555848601391
0.8414391842615614 -0.3326293607789631 -1.0199070925873186
0.7766069076063061 -0.8636957357147126 -1.145226470074711
0.7775687382306151 0.0015906857273998154 -1.1433672724449924
0.8299322971239189 -0.6892397268865345 -1.0421496545842548
0.8474580018908049 1.398035588562493 -0.9798104137453278
0.699909693797084 1.398035588562493 -1.1926181689785469
0.6082545962928508 -1.0119641152024315 -1.2108666322134376
0.7734446085480156 -1.0119641152024315 -1.1400544774288783
0.8356133065314054 -0.7233566562315441 -0.9653047998906268
0.7916929247008889 0.1658093800184451 -0.9425831887715336
0.8432133315639543 -0.8382475296532315 -0.9692365692898847
0.7383334167870916 -0.8987577276884273 -0.9149783743825777
0.8568551101812176 -0.1757485461090449 -0.9762939575865149
0.8324744068061711 -0.46139841561262895 -0.9636809328856945
0.8433782449538235 1.2843257419078702 -0.9693218849851671
0.8494486580956989 0.5951325837254491 -0.9724623305139465
0.5901510031759207 0.9155420889052541 -1.274415160906268
0.5763075473363262 0.6964605203461744 -1.267253437646543
0.6155856629568164 1.071080467697867 -1.287573435593361
0.5762646243284446 0.8219726687904676 -1.267231232013247
0.6705544567314786 -0.20336041264221216 -1.3160107920957058
0.6811583789305917 -0.016857904458577405 -1.3214965867655954
0.6392072707945683 -0.9157373951733099 -1.2997937525607377
0.6689475515185626 0.21900329865283213 -1.3151794815780966
-0.32002803564509746 0.6191483849145402 -0.8035465006855644
-0.5907682794148739 0.19602683323818146 -0.6634827247573488
-0.6700356246233102 0.5485204815781117 -0.622474843833891
-0.5913018948657602 0.19414544114122328 -0.6632066660750336
-0.5713896792114939 0.10847566955203378 -0.6735079795140696
-0.6055243500593364 0.33949787729510084 -0.6558488726799887
-0.6276090912663543 0.8956197329181007 -0.6444236327497078
-0.3346911761721324 0.9253193119988754 -0.7959607247381623
-0.6212684654969889 0.7220499868661407 -0.6477038690922601
-0.45956562034575876 0.8370460322009896 -0.7313586326207887
-0.3465223968235035 -0.297453164742681 -0.7898400039498629
-0.3279358458470186 -0.8962198830506815 -0.7994555028317448
-0.35265974031765007 -0.652237883970995 -0.7866649329224111
-0.3707056386189641 0.33445537670354036 -0.7773291333349367
-0.3752942973797057 -0.7245084758627475 -0.774955253251479
-0.4212992031286319 -0.11020994329903604 -0.7511552421386294
-0.2904720784119111 0.27889247847262744 -0.8188368724219995
-0.2098366132381227 -0.6559060570409936 -0.8605525315671277
-0.2647483332763446 -0.1616501374781151 -0.8321447014485785
-0.33122852060041874 -0.6352315318417501 -0.7977520824150266
-0.5187613663397325 -0.991722909305855 -0.7908060164656074
-0.4889756206418417 -0.6916250233368687 -0.8062152661330922
-0.38809551293310757 -0.869869723064671 -0.8584042152342296
-0.6617409085887744 -0.7421024016027753 -0.7168374985643015
-0.29201724374955285 -0.11955892236108596 -0.9081089986056274
-0.44821573872320664 -0.48176064081919895 -0.8273018356375759
-0.2604383446825001 -0.261923920225258 -0.9244459117346138
-0.28891640940541863 -0.6744164977827587 -0.9097131730006858
-0.28138396029475904 -0.5775285564222312 -0.9136099829087216
-0.3154235266475534 -0.056224967490852464 -0.896000077089232
-0.5003141933710094 0.6618253389468779 -0.8003494100343795
-0.8014166382729845 -0.03839979250107127 -0.644578163074691
-0.6899126665716804 0.2690336758499431 -0.7022632234484935
-0.3107959927317084 0.7280444561909565 -0.8983940687044583
-0.697666000669037 -0.4204798129229536 -0.6982521417024335
-0.47612754650171196 0.5909288136969126 -0.8128620422178566
-0.6883314946095973 0.2492923274054451 -0.7030812212175636
-0.8059947227255542 -0.38248045856955776 -0.6422097534654774
-0.8150563639453738 -0.7883508639148656 -0.6375218368569884
-0.49892934488593466 0.8216372201877412 -0.8010658425277807
-0.19086937168250895 -0.5435103875113781 -0.9065839316715703
-0.20864706947699319 0.8638872493592255 -0.9409478338926861
-0.27528337813923476 0.968631970343104 -0.8806016216560298
-0.6655216180842612 0.9686319703431039 -0.6804690502040417
-0.8085829221241618 0.1179155307799053 -0.5889237926864875
-0.8127103022033656 -0.6444332642717864 -0.5969019283883525
-0.6331861826371235 -1.0119642155439763 -0.6531449342214727
-0.3525314577355737 -1.0119642155439763 -0.8712282587624285
-1.17823995395055 -0.38034200945780783 -0.3595622051312271
-0.8266600557002574 0.9628160463791706 -0.541447274760063
-1.0841614167929579 0.5479376374451201 -0.40823245438792916
-0.9587329529865607 -0.18109437910177517 -0.47312116101308244
-0.851380054506736 -0.44393202151341726 -0.5286587202194953
-1.1220295853865225 0.36257213104676156 -0.3886418733688356
-1.1427417425627067 -0.4732533941143392 -0.37792672108367353
-1.1405869952483496 -0.5740775979813146 -0.3790414502455364
-1.392887348443769 -0.8444659159510455 -0.2485173004385998
-0.8218366517738807 1.0633798165449866 -0.5439425970562555
-1.5646004531679905 0.34844639012690326 -0.159683865522721
-1.9140300911618127 0.3071589074071457 0.021088796262507814
-2.0720360415155534 0.3211484926825364 0.10283102164252966
-1.5660484891077746 0.5481780971024836 -0.15893474386063672
-1.7699352942440256 1.158216264652804 -0.053456683444885744
-2.3067520810640243 0.3082951049486218 0.22425816639323992
-1.202046797864734 1.105182602505959 -0.3472460588312712
-2.1962572972661283 0.6698320535330029 0.1670951956297747
-1.7296947851672 1.3549553049140122 -0.07427456248678604
-2.4486412424298822 0.7211043959276093 0.29766259060248057
-0.2649664791688784 1.2079988832218802 -0.8320317927769283
-0.4234683814325003 1.248653084235987 -0.750032993434316
0.39025178757660073 -0.5092560141611718 -1.171000034881161
0.26171351930289877 -0.41107800112334425 -1.1045025132899566
0.5068241361431258 0.9311074871783797 -1.2313071509629938
0.3798393647735514 -0.6690575196855981 -1.1656133098267347
0.2849814241884747 0.5441232223648751 -1.1165398468272034
0.10452631702596649 0.8942399118149474 -1.02318385607097
0.014111858456755555 0.48802180250335925 -0.9764091679441559
0.3867563521716342 1.0723743898389406 -1.169191719004231
-0.05810531955993714 0.2481407671018501 -1.1191915877820584
0.09171426421346829 0.6374611056001145 -1.1966987079615792
-0.16710084114554646 0.2908580124925017 -1.0628042398947326
0.13692583320566443 0.34318954276809693 -1.2200882971135738
-0.09423898252517393 -0.8748497947475535 -1.1004983296148971
0.1312093082478154 -0.12570876633551387 -1.217130930821679
-0.12699073515561587 -0.6137643031768276 -1.0835546566765386
0.26909304759852004 -0.004838665612319354 -1.2884632045304367
-0.3389331637025289 1.393092006712659 -0.9739091292575721
-0.7192901647200964 1.0096326995921467 -0.7771366176373407
-2.42592799444297 -0.03438527289305243 0.10576920842147908
-2.505332175141394 -0.04990533923313181 0.14684787932112142
-2.407818437663038 -0.7820193841066052 0.09640047598752088
-2.2360214518854526 0.02366846048053145 0.007523646351672131
-2.4104902960321977 -0.2690473798446691 0.09778272550727862
-1.7758503882497354 0.6879594343609428 -0.2305395829942004
-1.5491716511026308 0.6450105800033213 -0.34780873886620695
-1.389591520387298 1.272283861412764 -0.43036534500605433
-2.4699169733782096 0.23109623248550556 0.12852630726687864
-2.1907161414107055 -0.41042103508925576 -0.015914438678971576
-1.7206686726939024 -0.18448486183053148 -0.2590870916147475
-0.9564628931023017 -0.43714927223848477 -0.6544385383940616
-1.9421560788882513 -0.5103782415252441 -0.1445036000725491
-1.247502875952705 -0.42675504448385126 -0.5038729690626904
-1.028649275429413 -0.8214888078201084 -0.6170938971299773
-1.213183923009984 -0.7381608854053434 -0.5216274117274748
-2.190839530997752 -0.7295671644648726 -0.01585060475745581
-1.7569449009604323 -0.7129502532564742 -0.2403200792315991
-1.5993322607792195 -0.2652865157841939 -0.3218588309532234
-1.14942307883485 -0.306905019393733 -0.554613215637491
-0.1855295288632145 0.2565771525543665 -0.8962621382115903
-0.24568066830198876 -1.0058726748344633 -1.0125329792427653
-0.6251774468572309 0.9686320110800075 -0.7495826148213303
-0.6477449658364266 0.9686320110800075 -0.8075444851909734
-0.7982327188305207 -0.5251744067978218 -0.5689170168132358
-0.8447705993933227 0.7293681455509687 -0.6588737252535309
-0.8496856470562125 1.398035588562493 -0.5327080460533007
-1.5498692635819207 1.398035588562493 -0.3049690616611554
-1.9533987749715251 -1.0119641152024315 0.017972804123768116
-1.7912790287269904 -1.0119641152024315 -0.1657199042963402
0.02902914737173834 -1.0119641152024315 -1.0119681508286669
0.09588817343984846 -1.0119641152024315 -1.1906524134947534
0.5308684939565547 0.05243172523062259 -1.2720211933270826
0.482713801166635 1.2583395512956939 -1.3651031645502685
-2.533876028885007 0.9065581846387426 0.21509245727460868
-2.544302688616108 0.12550294370899207 0.19493795135182412
0.5613489312983664 -1.0119641152024315 -1.3937379258290998
0.6539863128517862 -1.0119641152024317 -1.352884111988304
0.5365986737516584 1.398035588562493 -1.4157607330116773
0.5775570634725555 1.398035588562493 -1.3138401777493498
0.4733936828906884 0.8232627901783393 -1.3831187499666902
0.5258312801559473 -0.21481890540183396 -1.281758017774882
0.5894324874335997 -0.8983189802035991 -1.4541863983584522
0.4907259493210858 0.38118310419343493 -1.4031219158702215
0.6609791591211218 0.3323098158699953 -1.3687325737066318
0.647941977117384 1.1157919936223926 -1.393933162263961
0.595017072169266 0.14953264662917679 -1.276932503315372
0.5616366433726196 1.2655650587945884 -1.2596635896802109
-0.41620853829638627 -1.011964201927185 0.06967819062180758
-0.4053452536182134 -1.011964201927185 -0.07539065564261793
-1.4155575316155387 -1.011964201927185 0.6957851302706897
-1.0238302507030248 -1.011964201927185 1.1446447001262867
-1.9732427285445007 -1.011964201927185 1.0722694738202034
-0.7052201409686678 -1.011964201927185 0.6246149692265792
-0.19580904537810784 -1.011964201927185 0.14658473581025544
-0.5433699168363334 -1.011964201927185 0.238282392059479
-1.5886773323257666 -1.011964201927185 1.450572820027015
-1.6868321956864625 -1.011964201927185 1.3172533127561061
-0.5856086329395931 -1.011964201927185 -0.6492469082803846
-0.7127312843912865 -1.011964201927185 -0.7742921234733372
0.25151737670610697 -1.011964201927185 -0.059874392724030445
0.5188901982953471 -1.011964201927185 0.4442272958143132
0.039998596902193095 -1.011964201927185 0.547823724916068
0.6776339118335 -1.011964201927185 -0.2548093063582425
0.7658428379475621 -1.011964201927185 0.09966573079653429
1.0375396782415485 -1.011964201927185 0.36664342304790176
1.1712279358888367 -1.011964201927185 -0.22020771535758366
0.7231140425183362 -1.1719641888141634 0.7058461975933765
1.1777858404335384 -1.1719641888141634 0.17273061684196345
0.9699707486990312 -1.1719641888141634 0.14351400454718222
0.00024318058639916096 -1.1719641888141634 0.5278212179418189
-1.0533224290116894 -1.1719641888141634 1.4065036554304626
-0.3166638209486963 -1.1719641888141634 1.0309682668704891
-0.4907482774928841 -1.1719641888141634 0.677648564802984
-0.9794994302093781 -1.1719641888141634 -0.5904272268611035
0.10083121822226504 -1.1719641888141634 -0.7872598659213411
-1.4957841430885879 -1.1719641888141634 0.38949841524374385
-1.0634906678178546 -1.1719641888141634 0.3338188606625241
-2.20301186997341 -1.1719641888141634 0.7377385489085497
-0.8473812664788019 -1.1719641888141634 0.009719071574560811
-1.0748916101299753 -1.1719641888141634 0.9028978905248803
-1.8856141846767644 -1.1719641888141634 0.8819842059651901
-2.122211838540136 -1.1719641888141634 0.8501274544398281
-1.5221199287119713 -1.1719641888141634 1.0389288561370915
-0.8456557369300253 -1.1719641888141634 0.4231599556707444
-1.2606114225516816 -1.1719641888141634 1.1211546175930691
1.209098513191611 -1.0154270608030953 -0.30922952518829283
0.9673543905674118 -1.0534992454935102 -0.7765154524182978
0.7551844492606503 -1.06738691017694 -1.1866353911561092
0.660157440870597 -1.0930470882262078 -1.370320660225015
-0.44682128810501126 -1.1025519807310928 -0.9180946797402971
-1.9815763594351166 -1.0672014959262484 -0.12410999321087074
-2.5530308575076184 -1.0817208002867063 0.5262786384092963
-1.927221156387636 -1.128503668547039 1.7359550278955482
-0.46353319750395405 -1.05749066831895 1.3424526785951472
0.4698764635798627 -1.0693862969652455 0.8595658139952169
