# Exported By Aspose.3D 23.9.1
-2.2000779422071792 0.9204567733808018 0.8603170722999525
-2.0649769506938673 0.3290541658750107 1.1214644115628185
-2.271695420605072 0.2050369628482544 0.721882011840144
-2.0918100427920194 0.9731804026247318 1.0695966160186423
-2.074268570083934 0.5301952103706788 1.1035039091713899
-2.1497228843135896 0.13359796687632175 0.9576523267643344
-2.163761744177835 0.12768196688529393 0.9305155096413399
-2.1000327208559364 0.25753165411884493 1.053702354444734
-2.223698655448404 0.5986114313182129 0.8146587366701266
-2.236810160458509 0.3134676029188246 0.7893144767297162
-2.2603603359091298 -0.8616779311701499 0.7437924891468398
-2.3599262246183272 0.12351531567489571 0.5513337467904783
-2.2635215289576553 -0.8818203218180516 0.7376819703099934
-2.4220687554689135 -0.1615879777679768 0.431213558145585
-2.363016304361436 -0.9567979511303278 0.5453606884584565
-2.418997982601414 -0.1985053716307163 0.43714929669824426
-2.290767141466838 0.1843326759885519 0.6850167815970074
-2.2675509427097325 -0.6925905694198222 0.7298931993442344
-2.382483978575574 0.1539077877333921 0.5077300888180571
-2.2863068057898768 -0.6163190078813188 0.6936385154659472
-2.4283819238261195 -0.3195072725518632 0.5931166266406822
-2.3452564410019705 -0.9777110339180117 0.7537964145631021
-2.3853845312640702 -0.44971889579151714 0.6762296707201091
-2.475090399046546 0.003298575236772225 0.5028301388199178
-2.417879492152424 -0.6324029083203073 0.613417603388921
-2.4936399905482114 -0.8494478749762224 0.4669741735097324
-2.491925700580761 -0.1517357023991712 0.47028785950648166
-2.263278101724948 -0.7706004684589456 0.9122587984403765
-2.2751270264770214 -0.9523998069457923 0.8893550792487602
-2.4761353301924127 -0.8787608064966238 0.5008103091695258
-2.2260032036356354 0.5450138626169063 0.9843103825796342
-2.257619152043757 0.48684089878053255 0.9231974276518417
-2.239135305313744 -0.38121176820681507 0.9589263097186321
-2.3237857302561116 0.8210873871471848 0.795298841159366
-2.145215844455602 -0.2623648423175458 1.1404706272944947
-2.1491992986137904 0.06567974550404276 1.1327706952448922
-2.139993511982597 -0.11863774100318608 1.1505652847414543
-2.1948628246270845 -0.5563855084022382 1.0445040719865615
-2.2963018975252636 0.7982904052542364 0.8484245044873026
-2.19837965206249 0.19621984475123494 1.0377061194540502
-2.4581516243348904 -0.06095948681153701 0.44474400027068633
-2.469885349430604 0.8368211069034772 0.45081428148690406
-2.3177692335829034 1.0711613465100527 0.7327949088901871
-2.262932748432326 1.0711613465100527 0.8864865203410843
-2.0783660923382707 0.17582717229314776 1.1365080808296812
-2.125881715338587 -0.311123505106706 1.161089634549656
-2.1165689919298347 -1.0119642447680235 1.0498053240928358
-2.432526527782758 -1.0119642447680235 0.5230068119935696
-2.026023321013912 0.8333091490584709 1.1967601998251924
-1.9160983645777327 -0.2984881724110832 1.4092427305663897
-1.911349553919138 -0.7643018635477435 1.4184220774541443
-1.9135887613421718 -0.45709808614037983 1.4140937385989276
-1.9770226913167626 0.7307206403955621 1.291477342715374
-1.9777988877154318 -0.9237932112599183 1.2899769720944663
-2.043985424316842 1.2394093405101287 1.1620398479508005
-1.9380536589238444 -0.590974716703189 1.366803627954253
-1.8950118164920418 -0.9043813072161577 1.4500025657039628
-1.9381417322001784 0.7537156043480119 1.366633384242062
-1.8306893448917516 0.2883911821780172 1.5743364930691608
-1.7592137075105692 0.7373081851514989 1.7124973330592257
-1.7788679865428914 1.119680187042452 1.6745060426000287
-1.7412104204590415 0.3068673844407558 1.7472972922167238
-1.9663655821614148 1.2889874506909644 1.3120773010608495
-1.8742972860340834 0.2914763178342919 1.49004329892343
-1.7782349012944083 1.2176656613970724 1.6757297825052673
-1.7568579723133797 0.8549983442042918 1.7170509175470712
-1.7238402804478263 0.9108980020675977 1.7808733920267321
-2.272719666038192 1.1739077943627916 0.7199015735877903
-2.198803544417927 1.3074155146784276 0.8627798161055998
-2.45545914757464 -0.7567359281160042 0.36667016224998195
-2.4375421340459464 0.2461003570378595 0.4013033565793458
-2.60965554049554 1.1489807397405039 0.4168244039173118
-2.595418252686955 0.05543510544318794 0.44434476910585996
-2.263142868013513 1.1764416956192538 1.0866258027072582
-2.44227382891837 1.1955621536726415 0.7403695826352956
-1.9886808716405406 0.6851302522213311 1.617154824253601
-2.008863923628757 0.7840793609234755 1.5781414272637444
-2.045893007939486 0.6331745989451667 1.506565019135341
-1.982226128903513 0.9813757498025164 1.6296317004472543
-2.0401619999331184 0.8927118170999866 1.5176429319621523
-2.0541426141505434 0.5277308975876149 1.490618711197876
-2.039917114118264 1.2412183012763838 1.5181162908732664
-1.9863983470097963 0.5891730228778458 1.6215668943216135
-2.116916493785507 1.195644634911644 1.3692781781495467
-1.8774748855858476 -0.7435027949803124 1.832113557161449
-2.0270158715650237 -0.6134005963820941 1.543054109875361
-2.1460754933204886 -0.15138244515724614 1.312914471344973
-2.138465163154739 -0.7273551073683139 1.3276250727026675
-2.0196175254353954 0.10031091875562054 1.5573549507388775
-2.19886990366708 -0.6800392840407928 1.2108640336361722
-2.1283633245030082 -0.47358020777447096 1.3471517053386803
-2.1043579640536945 -0.8888924357708445 1.3935535407816286
-2.174571249438703 -0.31677791956156454 1.2578327995237295
-2.1455677309613335 -0.32295993795863054 1.3138959648527835
-2.0331983836364262 -0.06603172472857438 1.531103449589839
-2.437279769646301 0.5032928180265442 0.43394629332238654
-2.5654376793032116 -0.5916381258098297 0.5002470460154161
-2.2458807043883326 1.071161411516325 0.9236318518806848
-2.4205923984545734 1.071161411516325 0.6709501902617894
-2.139127948237543 -0.686075624419024 1.1679424049805591
-2.1483231813742174 0.5414954125193994 1.1726994338661074
-2.4797609488100227 1.398035588562493 0.4225591592203237
-2.0147150320708507 1.398035588562493 1.5464602802434038
-1.8719585746853278 -1.0119641152024315 1.5235261877120685
-2.041973754125147 -1.0119641152024315 1.4445018307249242
-2.4550607514366822 -1.0119641152024315 0.3925790998023071
-2.5710430073907196 -1.0119641152024315 0.4207949086265891
-2.555201733971331 -0.6848685051548784 0.3527903770494255
-2.5773152866282425 -0.3952430360401964 0.36423052295844627
-2.6019500956584802 0.01188542477891924 0.37697500658436
-2.5560640185309014 0.6986491597212037 0.3532364682465129
-1.7264791386599607 1.2598915782139182 1.8156779456013843
-1.766867737048289 0.7601348532511591 1.83657243803288
-1.8248989857968165 -0.017534485980598785 1.8665941158368011
-1.8473139598303578 1.067321179244371 1.8781901979982298
-2.646522603399131 -1.0119641152024315 0.31946812205742736
-2.6027356984010344 -1.0119641152024312 0.20631339545501093
-2.611807085310641 1.398035588562493 0.3772470889591779
-2.5668934957031606 1.398035588562493 0.25193529551806915
-2.582730664960453 -0.4287516430077001 0.3670320953350892
-2.6221612495673963 0.6897365053256854 0.3874309723577025
-2.5182035682948944 0.04248460663172485 0.33364987890010267
-2.5527139748541923 0.7742872418798572 0.3515033686827408
-2.6806347487383606 -0.11814397363722479 0.27962370187460783
-2.663568223724189 -0.6656649258946953 0.3126129205519379
-2.6474727423928925 0.7483473549432229 0.3437251330799209
-2.66850582818592 0.5483707931114049 0.30306863938193174
-2.5836675628560903 -0.5818624139400379 0.1873737433180347
-2.5771819929804143 -0.5279498727855604 0.18401852189196966
-2.611471945888304 0.6416398755581201 0.20175796297436432
-2.6698421494863216 0.4856534268997212 0.23195499446273882
-2.511028639374742 -0.2712466395124313 0.2592560633162144
-2.494110291819722 -0.6185625900733334 0.2919588631958776
-2.5231958350375905 0.26310136010713187 0.23573713727660972
-2.540818801842964 -0.13321288565070355 0.20167232362694154
0.6995468837221777 0.3794542773677466 -0.945969314848782
0.6981411904447908 0.15380129526953928 -0.9486864893110805
0.6760964879583029 -0.24803237060918615 -0.9912984186621301
0.6586935731922267 0.3000961130894216 -1.024937873536557
0.645633829237946 -0.6973147513168279 -1.0501820739091277
0.7048227857520141 -0.8930588403822748 -0.9357711112351816
0.6375658941361532 -0.930344838987321 -1.0657772165869286
0.650259225273967 -0.031527781350193074 -1.0412412842011078
0.6903455960544638 -0.9226978965871189 -0.9637552033304084
0.6509906529048927 -0.7131633450200702 -1.0398274505350142
0.5653774757516884 0.5433586911306174 -1.2053158556793941
0.6152845202591739 1.0310802269643626 -1.1088466265765673
0.5849633834812172 0.6003508637657541 -1.1674567229939605
0.6257681533510804 0.6319343131125127 -1.088581992343991
0.6549527555759243 1.0645417716786365 -1.0321687924423009
0.6436411163741305 0.7734754534897432 -1.0540339444354765
0.6160239567789089 1.0492646565615182 -1.1074173119029924
0.5980506566275908 1.3022652412017037 -1.1421593092931868
0.6262339379397336 0.2982494163058197 -1.087681640887823
0.7638910540610383 1.0233597791497422 -1.1698059377831715
0.769508365873635 1.1764453736300209 -1.1589477965019312
0.7587512369068874 0.2275258447883387 -1.1797410922986038
0.7295082633828126 0.6067136852033456 -1.2362671226492639
0.7515324185280757 0.04128326931668963 -1.1936949108608876
0.7973563428448479 0.7159684897428155 -1.1051182640782424
0.7671500651985453 0.48684460279891 -1.1635063402979773
0.7457523765540832 0.3782517419461236 -1.2048676059967296
0.6877596463404808 0.156964386630405 -1.3169662893085679
0.8181749678395763 0.8480025272218535 -1.0648763157913417
0.7695548936233126 -0.06578141896271761 -1.158857859376069
0.7689846145773382 0.12343434845463208 -1.1599601963403505
0.7741944251189082 0.06048517904076722 -1.1498897461328321
0.7705072750700934 -0.702773693058097 -1.1570169268005284
0.7963840236369896 -0.22088394472741246 -1.1069977359113201
0.8078246745867107 0.020938429076170217 -1.0848832070217442
0.7879543414394705 -0.5107058362054219 -1.1232921278393877
0.7048823138053559 -0.8211679415512245 -1.2838685463582153
0.8502504151826614 0.11562791167557725 -1.002875175293999
0.834542045228249 -1.0052589046108804 -1.033239111987082
0.737367144594792 1.398035588562493 -1.0551870545334519
0.7045954033846226 1.398035588562493 -1.2432598560223889
0.6323260047620296 -1.0119641152024317 -1.1826920677251578
0.6966494935564327 -1.0119641152024312 -1.2268872623829776
0.7395679065167325 -0.6478132795517334 -0.915617020824124
0.8187455008016444 -0.3492238927673107 -0.9565784704223856
0.8245399980388225 -0.6697226588675569 -0.9595761746172599
0.7671724466273206 -0.9141950447578133 -0.9298978535348814
0.8057009034245385 0.16177069701785024 -0.9498300257036786
0.7950942748414619 1.2861106420236903 -0.9443428309229203
0.8478965704674493 0.466826292418727 -0.9716593791268676
0.8071771967838213 0.4060597150388331 -0.9505937659584143
0.5730906679044391 0.7429918634378264 -1.2655892289028576
0.5615196910686362 1.0661832655575885 -1.2596031416929219
0.6078098994583354 0.9246745546526555 -1.2835507502932126
0.6414402922249395 0.7802314826366477 -1.3009489757725323
0.6824844594598988 -0.539114318008647 -1.3221826164594126
0.6758755161766693 0.25155896444520787 -1.3187635696995472
0.6202948202046492 -0.077771113540122 -1.2900096539326462
0.6499941154657833 -0.4561761326732129 -1.3053741796792269
-0.7580353146534764 0.016455354071387575 -0.5769494033064064
-0.29472886190070846 0.6965755067687278 -0.8166346834882522
-0.646114812582084 0.7221875906986323 -0.6348499499914089
-0.5397378344134598 0.27312355224138035 -0.6898826301229991
-0.6323376909479431 0.5889543272085292 -0.641977356137726
-0.5859708763322052 0.450248086024068 -0.665964595871344
-0.304010443955778 0.6948905770141115 -0.811832983485625
-0.3975852726462704 0.4130797426710854 -0.7634233209406975
-0.7627949416347095 0.011646453430889867 -0.5744870751437406
-0.6581379562952943 0.41369000843053816 -0.628629940422267
-0.22574209662250883 -0.6993548349126115 -0.8523240464710036
-0.2713552221248935 0.3340778273751023 -0.8287267175301897
-0.22667549797573316 0.7589390934338079 -0.851841163999714
-0.3075306672507331 0.07387669474039144 -0.8100118439315765
-0.25238554688693626 -0.13985511044454696 -0.8385404205281806
-0.2093492564718185 -0.687680534524902 -0.8608046589493088
-0.4486048768296092 -0.9146703781815116 -0.7370290239245584
-0.440119387560971 -0.6359058492877105 -0.7414188761719194
-0.2862361039642182 0.33530365277789304 -0.8210282960818814
-0.37886784039784527 0.06901272950408462 -0.7731065294651912
-0.4369528525250365 -0.4802911268653017 -0.8331285363408039
-0.6217848715076054 -0.5763700339454656 -0.7375082098955479
-0.6851363300105748 -0.7337110709076288 -0.7047341960846166
-0.5499105033004421 -0.3333298685387147 -0.774691434906273
-0.4743244372458274 -0.43330168989282536 -0.8137948562216922
-0.3426675465027499 -0.6630709850826139 -0.8819057546521623
-0.5208358413773801 -0.4297920121400868 -0.7897328150722865
-0.633139776978566 -0.5879317754422932 -0.7316339042754233
-0.5538616399783394 -0.21934687612371664 -0.7726473681853118
-0.5071562194305009 -0.2471478753675602 -0.7968097810839581
-0.6877349210220269 0.2817106529197896 -0.7033898504340061
-0.3885786527365159 0.7861384795884115 -0.8581542694403412
-0.4461383613927919 0.43200170520972947 -0.8283765384925122
-0.669164923143976 0.06928393358745633 -0.7129967857959707
-0.29648821784354196 0.7633211662384966 -0.9057960010809083
-0.47047047337591696 0.6701589664078414 -0.8157886519145467
-0.6498081821042512 -0.0009905553274233495 -0.7230107320122339
-0.5796732143611457 0.5504050168835005 -0.7592941018944603
-0.7509549780727113 -0.3741785467047656 -0.6706838153738998
-0.8114920380499555 -0.046828341382182545 -0.6393657922904314
-0.19873965372418717 -0.6745445066027581 -0.9217970152586221
-0.20922410803629266 0.2566092818930753 -0.9420632368463651
-0.2425909523884191 0.9686319703431039 -0.896796210433729
-0.742786191268517 0.9686319703431039 -0.6424348259757294
-0.800748890359742 0.4895044474187603 -0.5737807800949941
-0.8147704306180047 -0.15269170592590886 -0.6008841116958876
-0.686389636586041 -1.0119642155439763 -0.6547706245624693
-0.2771362483838527 -1.0119642155439763 -0.9004441853515991
-1.4140079075729428 0.06053583087444031 -0.23759086696806353
-1.274326269487647 -0.9922704044568402 -0.3098532590884661
-1.316858685080745 0.449478675856052 -0.28784969344056344
-1.1358576256720552 -0.44085851464740766 -0.3814881251520535
-1.5099250522867114 -0.751157604442211 -0.18796943914558
-1.3837608777860997 0.5327459376023317 -0.2532387556733753
-1.595410616181396 -0.18354577480597323 -0.1437446475160658
-0.8224484048082155 0.9615106991895362 -0.543626114959869
-0.80302743736826 1.3825584007643001 -0.5536732878291236
-1.2312129487898622 -0.9250763798235706 -0.3321573480766948
-1.5261612050337303 0.5408313733717819 -0.1795698867604958
-2.0801052681447665 0.8124548302140671 0.10700552608550096
-2.3363206396205056 0.5202412873184279 0.2395550572525721
-2.148151024082856 0.19602225798864104 0.14220807070861607
-1.4357482749593855 0.9703425142467494 -0.22634378414131848
-1.2190881058465834 1.173193865868228 -0.338429970356729
-1.8464219408389664 1.233227620448004 -0.013887359058503856
-1.7628926139459435 0.3325424312773938 -0.057100118131468314
-1.6978100880640938 0.33545919168151717 -0.09076967606283076
-1.8156513707539506 0.3179373964085275 -0.029806094203161437
-0.4836832589956222 1.0909344787259196 -0.7188816470326416
-0.49212467345640004 1.1966220967115664 -0.7145145962865509
0.34939283601823234 0.6438235007568498 -1.1498622130485134
0.18752542300148578 -0.3325685031721124 -1.06612231257721
0.2734348948082659 0.49392950029545324 -1.1105664071887529
0.5027831171369024 0.5523734551717965 -1.229216584844236
0.01814677770818418 0.3551802998531415 -0.9784965784378877
0.13879465489745813 0.2206869713885908 -1.0409121137183497
-0.06691560760582094 0.42161585469311613 -0.9344907124807325
0.12669249551265716 1.0846006336403107 -1.034651226468201
-0.24192129480374702 -0.8373948619990483 -1.0240968977201388
-0.19282235938602343 -0.40245824964771615 -1.0494975629219838
0.18236048519234704 1.190552539479842 -1.243593295212972
-0.02942513492235488 0.7840340164004629 -1.1340288904996922
0.06614359646991463 -0.4564597357782699 -1.1834700714378803
-0.035578923386848205 -0.6687715192899474 -1.1308453118909156
0.3352326013341347 -0.8864565062333587 -1.3226796014185727
0.19814713622614044 0.13778339676071544 -1.2517603040117615
-0.681086057643016 1.2995999665632703 -0.7969009918532847
-0.3748881147940193 1.1354897390406506 -0.9553083252431132
-1.6882577616384093 0.4039654204707093 -0.2758544348087138
-2.1512062701049093 0.34334953118862355 -0.036354332225914665
-1.554393141151166 1.1912955314293256 -0.34510747213915416
-1.9753762169852356 0.9719276377514724 -0.1273176142954327
-2.5193198166831245 -0.44558034832507054 0.15408419507302396
-2.0018075630312633 0.9266411150284743 -0.11364371757980435
-2.0583351220304498 0.3850258461208469 -0.08439995519269639
-1.3831117617295887 1.3738874281650522 -0.4337175598525257
-1.1926031121420841 1.0343118899642707 -0.5322746137898093
-1.6006433639386652 0.7039828047247153 -0.3211805495991608
-1.7231264096228989 -0.7914130562299966 -0.25781561490437654
-1.3160912884851141 0.1712922984700664 -0.46838968844490225
-0.9435067519931644 -0.14863113151069124 -0.6611412214526897
-2.2859944761278603 -0.7602947162397735 0.03337650949637638
-1.243862244699904 -0.3824733682373518 -0.5057564000330164
-1.5592906977411065 0.0924616044166781 -0.3425737879728929
-1.3905990710393605 -0.4356409303140314 -0.42984410240539095
-1.4722255057308145 -0.6065600538779191 -0.38761577868354
-0.8747073954124308 -0.5714303126213081 -0.696733631099493
-1.1908536312501397 -0.46633552740664674 -0.5331796838903164
-0.20728991646507 0.06204196235904294 -0.93832449299387
-0.24522881302647093 -0.2042829403035395 -1.0116595528472054
-0.7158655741806963 0.9686320110800075 -0.6504944368933586
-0.5237704637037521 0.9686320110800075 -0.8232649989485489
-0.795102189663136 -0.8018551263685156 -0.5628657721891013
-0.8593673078143547 0.7937188418155472 -0.6870888443723918
0.07166366630532361 1.398035588562493 -1.1438156108962958
-0.9197962412675199 1.398035588562493 -0.6297372833524664
-2.0421878816368015 -1.0119641152024315 -0.019494404289561063
-1.664761050836193 -1.0119641152024315 -0.23061595935813273
0.05768658526197945 -1.0119641152024315 -1.011269637488236
-0.013935630586935255 -1.0119641152024315 -1.1296281032940296
0.5222707639716213 -0.8783925431733497 -1.2886404179275521
0.47433329462422646 -0.7848508909700294 -1.3813025009725637
-2.5513212488273798 1.3070543645532122 0.18137122749245105
-2.5329034996656272 -0.8621022903769553 0.21697233505115177
0.5356870863475174 -1.0119641152024315 -1.39128658783578
0.6540014469341981 -1.0119641152024315 -1.3747365290706086
0.5461027943340746 1.398035588562493 -1.4027021007803633
0.557340283844751 1.398035588562493 -1.2670642754555959
0.4805842136486731 0.03507105805361024 -1.3692196107900771
0.5189777816455188 0.779762635891766 -1.2950056809654447
0.5752966042910896 0.4653563954418123 -1.4468733918343701
0.4955344370149004 0.6073295216293495 -1.4056095214567512
0.6805691231826472 0.4254193431785577 -1.330865600305031
0.618264785700616 0.42676427203664663 -1.4512985262066174
0.5677657027707419 0.45111904144552134 -1.2628343757134202
0.6820856918214369 -0.8657884060425691 -1.3219762767871217
-1.6921340890853527 -1.011964201927185 1.752255917909923
-1.834657540087227 -1.011964201927185 0.7374006030181883
-0.9806389567065483 -1.011964201927185 0.4750565217449474
-1.4065056629170436 -1.011964201927185 0.29893661158298446
-2.1397934400548113 -1.011964201927185 1.1424633896325709
-0.6634400916044537 -1.011964201927185 0.6520829607836918
-1.9739303771025296 -1.011964201927185 1.029853571021673
-1.599206087305752 -1.011964201927185 0.9948976919559616
-1.5565539840642613 -1.011964201927185 0.6188134524265003
-1.3734445706483482 -1.011964201927185 1.0030315542102102
-0.5377660447352512 -1.011964201927185 -0.7986767897592795
0.47536749728475813 -1.011964201927185 -1.0784362024698508
0.5744693076464504 -1.011964201927185 -0.3381324715630476
1.2553141185521053 -1.011964201927185 0.396254037036071
0.04892472492568456 -1.011964201927185 0.375423646674361
-0.042686190883013064 -1.011964201927185 0.519745617875695
0.8611768808524891 -1.011964201927185 0.5914634534323393
-0.01286884012501699 -1.011964201927185 0.9796726700797396
0.6551144629692267 -1.011964201927185 0.5034364194629906
-0.8770932247438844 -1.1719641888141634 1.1782191613498318
0.9331854809430067 -1.1719641888141634 0.26500677236726944
0.5265895216955672 -1.1719641888141634 0.18564281953019435
-1.2297976874706094 -1.1719641888141634 1.4082888610791557
1.185923767840992 -1.1719641888141634 -0.16377551580960203
1.121432130962861 -1.1719641888141634 -0.206584838535258
0.4064738489699491 -1.1719641888141634 0.17123060415108415
-0.5576107923024337 -1.1719641888141634 -0.6441221920907305
0.6429517530568172 -1.1719641888141634 -0.9769077014580139
-1.0826313510221088 -1.1719641888141634 0.19709115063070304
-1.740559961142469 -1.1719641888141634 0.36903965566612085
-1.3405165491272042 -1.1719641888141634 1.4317407411949232
-1.07309382206682 -1.1719641888141634 0.47380220896331604
-1.8336145862322588 -1.1719641888141634 1.2800340777117305
-1.6420804118827448 -1.1719641888141634 1.6367835878579662
-0.6321844718620178 -1.1719641888141634 0.3233384826343787
-2.1527167478955693 -1.1719641888141634 0.10095414842236405
-2.182082060275128 -1.1719641888141634 0.613216295281086
-1.4866703490762037 -1.1719641888141634 1.4173205012087375
1.3984460209539664 -1.0724180615178582 0.05677492932731021
0.9140603682895656 -1.0671010707348185 -0.8795315933924199
0.8145449048336126 -1.116719974808094 -1.0718928412358095
0.6199046903264547 -1.1384193827003706 -1.4481284060409743
-0.12788096249364234 -1.1052145717109567 -1.0830941243960943
-1.2985144179308223 -1.1634180348660705 -0.4774828092625194
-2.3787700385218873 -1.0160415690585476 0.863120969172656
-1.8125509437592284 -1.0281636295807648 1.9576100270841246
-1.1724388860787662 -1.1180933104233126 1.709195449240422
0.2733487118304838 -1.1197675181607927 0.9612367884941719
