# Exported By Aspose.3D 23.9.1
-2.2996582159280354 0.9262244999408722 -1.1571210956682532
-2.2760802987254016 -0.26419578420428097 0.6940129781114446
-2.247845504951506 0.376402614177187 0.6937940908289173
-2.187443145705661 1.0917564928531647 -0.4903934635282517
-2.176220102389596 1.0917564928531647 -1.0563701174643083
-2.280325796689792 1.0917564928531647 -0.17725605119444032
-2.280685215815422 1.0917564928531647 -1.0682693380525807
-2.2645096666433004 -1.3482435643672943 0.94753174579954
-2.2486999271919816 -1.3482435643672943 0.589481569334325
-2.2861070916175517 -1.3482435643672943 -1.0554156199421456
-2.2928076803713515 -1.3482435643672943 -0.07304390390706306
-2.3036986473348477 -1.1449374886686294 -1.894175173897133
-2.192365323379838 -0.32447675243889285 -1.8950382738344087
-2.25536890304574 0.0635432358542403 -1.8945498451795726
-2.277618906234231 -0.0050962228941803245 -1.8943773543594464
-2.260716884333464 0.579410738295683 1.4666629951612937
-2.153736013417852 0.2760006516902921 1.4658336371605007
-2.2544546336998113 -0.26123643410806957 1.4666144477189187
-2.2287334141457666 -1.13819722807281 1.4664150466573576
-2.2839626994039124 -1.3482435643672945 -1.895762555682283
-2.208917059424583 -1.3482435643672943 -2.028600666961866
-2.268672980693486 1.0917564928531647 -1.950855284571369
-2.25554407969341 1.0917564928531647 -2.013298575007936
-2.2855364104389433 -0.2288913196094967 -1.8943159747370681
-2.292750407543511 -0.6802004247043213 -1.8942600489798262
-2.1811255040399122 -0.48616099579562133 -1.8951254093570238
-2.260642825492786 0.6126272057682263 -1.8945089596479856
-2.3258615822260365 -0.5239749647800099 -1.978967987414281
-2.3258560759872267 -0.9961668225077179 -1.9782577339374103
-2.3252126546517062 -1.1084346187405867 -1.8952623796821442
-2.325272388371755 -0.323523706607435 -1.9029674727257984
-2.1704083972590107 0.6965293401931283 -2.055213280859796
-2.201180586995766 -0.6675272699241036 -2.0549747456091714
-2.274465738482119 0.5921000948356123 -2.0544066647502426
-2.2397663961346432 0.4999386524704228 -2.0546756419141734
-2.1653459937876507 -0.5500895387322546 -1.9130814802781648
-2.1655893862136275 -0.6396186256733254 -1.9444787540707682
-2.1661055061403527 0.2772277801623571 -2.0110574842189974
-2.1660255187503608 0.5805003840579999 -2.0007392256558854
1.4726622612780675 0.1850175872185214 -1.0604074080520633
1.4718162506226944 -1.1199842467723289 -1.1695330540661706
1.4695394541977347 -0.2659620165806905 -1.4632136113242944
1.4722363868567294 -1.298768942369654 -1.115340311147592
1.4714938496725731 -1.0516355909937034 -1.2111190692470453
1.4710761144095943 0.29369377992936324 -1.2650021145088335
1.470886158562984 -0.24363860738343435 -1.2895042343625884
1.4723543726183823 -0.13730229495672397 -1.100121504647858
1.470490836195158 -0.4027513776913518 -1.3404962738822288
1.4712547370744047 -0.7896211481175844 -1.2419618447836467
1.4701211967968826 0.7886392726803669 -1.3881755056660092
1.4702144828323436 0.8857421532641019 -1.3761426798154974
1.4664479547552518 -0.12346553784543579 -1.861981489329731
1.4676255189737963 0.6231267132660689 -1.7100892462999278
1.4690181100964717 0.13697635172953226 -1.5304610052957797
1.4692922532338766 0.16750138199406317 -1.4950996930243265
1.4660191834933576 0.49050357808324363 -1.9172880515453699
1.466769463689209 1.0286340372906948 -1.8205105339764704
1.4708324159292532 0.6950768682296735 -1.2964364161112711
1.4718333604161107 0.9662938551121192 -1.1673260874660694
1.626654549218898 -0.48830711754369327 -1.8359568045631431
1.6288820101953017 0.16488020928937225 -1.5486399528457038
1.6292781863752182 0.9201922108407699 -1.497537781384624
1.6262525138176798 -0.3648177005014759 -1.8878147481952212
1.6273412000804552 0.10021982323153883 -1.7473867394254738
1.6296392196211034 0.774254463863283 -1.4509686442944731
1.6299387168927781 0.8780828321865453 -1.4123369402569441
1.6273569114677626 -0.007764305541242411 -1.7453601511327503
1.62949304016945 0.16835246407092708 -1.469824112596615
1.628951496333344 0.8244241854290892 -1.5396770400800763
1.6320484022741517 -0.3999763630313686 -1.140211785961657
1.6304038961691785 -1.1096586067351142 -1.352334162836668
1.6307455900379693 -1.233651044906328 -1.308259583002421
1.6305378664169576 -0.5943741295210889 -1.3350535414370035
1.6326337904990036 -0.9494228713942262 -1.0647034365096966
1.6314618192746677 -1.1647888360720338 -1.2158742476021198
1.629976095353197 -0.95933095878232 -1.4075155486889874
1.6273442422484468 -1.0960929779938335 -1.7469943347373729
1.6306614861647355 -0.9499320876609822 -1.31910801551404
1.6291842011789188 -0.3607507574845678 -1.5096607909434063
1.557560003657087 1.0917564928531647 -1.2363814998222713
1.5863108329288556 1.0917564928531645 -1.6361514158019659
1.473839271552882 -1.3482435643672943 -1.8838488297823441
1.6172012307458488 -1.3482435643672943 -1.5566149417550887
1.5078787316751867 -0.9545719293881054 -1.0536260776593747
1.5588117193304845 0.11347252162642854 -1.054020941674663
1.5238463908610662 -0.08499908373641629 -1.9238477173991178
1.6148600603738235 0.15483421877388404 -1.9245533116445048
1.490853375268799 -1.2597749518727228 1.276967741256963
1.4908206056837976 -0.9597769801387654 1.2727407202492875
1.491082344213781 -1.1737075069990635 1.306502950216835
1.4912496233938104 -1.041013617563248 1.3280806604045223
1.4908632661262082 -0.9677119255759958 1.2782435847579345
1.491134584305537 -1.3472633538732897 1.3132415148122198
1.490908314254632 -1.2942486054883422 1.2840544421488767
1.4918196091482185 -0.5553649576158018 1.4016043793609032
1.4917615799045438 0.5060961775470123 1.3941190592977235
1.4913566168150099 -0.49839505843044624 1.3418819776648543
1.491725093908109 0.9814108204341372 1.3894126501866955
1.490736078000447 0.8888243706046013 1.2618373080383196
1.489643062082968 0.32020467640487194 1.1208467753626132
1.489702031461003 0.8030375715583596 1.1284533654293774
1.4905323178258545 0.1773078845037711 1.2355538339420111
1.4904774119263764 0.7934474353579114 1.2284714009319717
1.4896111551685602 0.7592738307376732 1.116731032136528
1.4908323935244066 0.15641582171446222 1.2742612597949339
1.4903662184744197 -0.12776768326552587 1.2141283124455935
1.4897046566805998 0.24443284153980327 1.1287919982922836
1.65123699212312 0.9890291911182811 1.325830213404135
1.6497324056981633 -0.05142303046193819 1.1317502936893835
1.65066317594875 0.7887520399607479 1.2518124001329973
1.6501639639280175 0.0006448048456353384 1.1874179410993868
1.650999034717485 0.8150081213733583 1.2951355630901917
1.6502957858463514 -0.02113471472679862 1.2044219409378327
1.6504047380070783 -0.44121546791006044 1.218475920327713
1.6497066827096505 -0.8105369362956019 1.1284322286965416
1.650309776183915 0.3210435398339482 1.2062265854208967
1.6513712911282168 0.4630589246014323 1.3431537381246952
1.651386438332822 -0.5617398357971821 1.3451076094377423
1.6504715367901839 -1.2725962204461465 1.2270924426139276
1.6507812284462162 -0.7944806454229978 1.267040252019961
1.6519284046989513 -0.4615126354791779 1.4150170457331397
1.6507038032151655 -1.1140714295826695 1.2570530007880136
1.6514270662616986 -0.5727054556682032 1.3503482955450508
1.6510529988997154 -0.8233494972722126 1.3020965219164848
1.6509236931964717 -0.2211381903342578 1.2854170942093741
1.6508287908263302 -0.14611746592354824 1.2731754282789125
1.6518365353271798 -0.5677702688585877 1.403166612948496
1.506201134350289 1.0917564928531647 1.3641660688754358
1.6159481952630568 1.0917564928531647 1.3417407864477657
1.5121781464170811 -1.3482435643672943 1.1283408257136143
1.621887153441075 -1.3482435643672943 1.1861963697303768
1.5239536850398658 -0.46380842771140507 1.4373226993491626
1.5682520296080882 -1.2799269385874332 1.4369792810504987
1.4967347840812568 -0.6212190941346565 1.4375337110415818
1.4928960666364024 -0.7947869350826857 1.4375634702984301
1.5818187459064006 0.32062342489779627 1.4368741064965727
1.5971272261830032 0.23680264436809767 1.4367554290989641
1.6478244881659627 -0.608361962389687 1.436362403860057
1.639086844447244 0.5761561983036462 1.436430141532186
1.5074813945960703 0.8491524018532108 1.1074756348795023
1.5241505822569943 -0.08463039436377606 1.107346408739735
1.5956047248526881 0.5706737070329706 1.1067924679475478
1.5295445586883865 0.9775324963095509 1.1073045924997118
1.5815727157035266 -1.0714293579540066 1.1069012496357986
1.626211338312808 0.2411432212753833 1.1065551933670914
1.6375848590161968 -1.0163533931349378 1.1064670213333994
1.6320252445209442 -0.036035676961605256 1.1065101216652469
1.5735806790109446 -1.3482435643672943 1.4527815902467494
1.5066637224638928 -1.3482435643672943 1.5250234367191182
1.6247842649739372 1.0917564928531647 1.453160915668843
1.5672982417643937 1.0917564928531647 1.5133652738597703
1.649851685749021 0.8898944404050353 1.4363466588364828
1.630372822604986 -0.45883789843292055 1.436497670320995
1.625035701830945 -1.1334135220362256 1.4365390467876373
1.5881866756050143 -0.2808958718971213 1.4368247218864387
1.5138787564806557 -0.13825364522442285 1.4374008001254517
1.5178978248662747 -0.08108672483889778 1.4373696419680797
1.5608252352540974 0.7805149585423865 1.4370368436974106
1.560495208820565 0.2980523756933522 1.437039402254411
1.652965433157546 -0.8022677990454083 1.548800229925585
1.652924077931987 -0.6968229483554433 1.5434658563908359
1.652920104212543 -0.22447232311381282 1.5429532898759866
1.6528103293308825 -0.31679342980039493 1.5287935261316634
1.6521789252169794 -0.7596580608255866 1.4473492745431933
1.652316470821209 -0.23764600680682624 1.4650911589387832
1.6526886724038248 0.4841479638624051 1.5131011079851868
1.652144214431195 -0.16629526481688706 1.4428719613486576
1.5616092405897413 -0.6589871202184219 1.5970355692501945
1.5376789028866005 -0.47197066532758514 1.5972210866987713
1.5641801704252614 -0.4347634826536546 1.597015638384635
1.5252940779422852 0.10375232806065765 1.5973170987631742
1.581173784127984 0.23823884249143656 1.5968838971657966
1.5066805996566979 0.9407739171887959 1.5974613978133387
1.5318619530987676 1.0298971612074284 1.5972661819956502
1.631600110735386 -0.1407003221233435 1.5964929723251466
1.4922910812023844 -0.10002579393857597 1.462436092849565
1.492662772168882 -1.315434368505739 1.5103815543441974
1.492386450628437 -0.18054491778453935 1.4747380629180311
1.4925971469031667 -0.8567770681610816 1.5019163670406717
1.492697647873541 0.017827943641149924 1.5148802694207941
1.493034535739737 -0.6559588110265289 1.5583363812787312
1.492845138547011 0.2999027693661932 1.5339055055525859
1.4932698157998174 -0.9858088783473993 1.5886858169062141
-2.0742751035021034 -0.19230001508607208 -1.895953691011973
-2.0241524203771464 0.523625477974476 -1.8963422779935715
-2.038577691674936 -1.0920586510901948 -1.8962304429463859
-2.07452546400243 -0.3892780744407274 -1.8959517500378458
-2.060991437706221 -0.1846365255266169 -1.8960566755146844
-2.078180043832389 -0.3534882315916755 -1.8959234171143748
-2.0882328926017735 -0.4615065036927363 -1.8958454802220097
-2.0180087916444185 0.4905378324412569 -1.8963899078089856
-2.0486014174170166 0.47276294233078353 -1.896152731836612
-2.147709916716119 -0.0045800490251568515 -1.8953843716812433
-2.099486665198841 0.7727812154671275 -1.895758232906973
-2.164194646585788 0.4853847359848906 -1.8952565702344104
-2.0438259609567906 1.0592578601887677 -1.8961897545994797
-2.153737429600971 -0.11033743086286396 -1.8953376420791461
-2.0881652134381374 0.1669431562912565 -1.8958460049194177
-2.11146412225661 -0.08566719719825847 -1.8956653750710568
-2.086718969006011 0.5765059475211403 -1.8958572172433297
-2.1575313819276443 0.3674126947006344 -1.8953082286401395
-2.072327578213606 0.2545450746228624 -2.0559736055302684
-2.1408847313588337 -0.008860329259046229 -2.0554421013180684
-2.0900611144851595 0.5341113800609227 -2.0558361224407133
-2.072935571629281 0.7680644488772481 -2.05596889192933
-2.06060514327988 0.6259009413523253 -2.056064486251808
-2.071075083509317 0.9735881430597346 -2.055983315767356
-2.0889719724840057 0.4313567678157222 -2.0558445662505087
-2.1571451388716403 -0.39526468501893464 -2.055316038979003
-2.1109043974775608 0.25495623450832583 -2.055674530364638
-2.1047363873267617 -0.9125772009435532 -2.0557223492022887
-2.1017672278044226 -0.46799596383697684 -2.055745368256033
-2.086730268582893 -1.1559987407951524 -2.055861945546633
-2.0464011209785653 -0.26206550066973255 -2.056174606018119
-2.0393394229215653 -0.626160740318407 -2.056229353365265
-2.1220818399676884 -0.9230422749935572 -2.055587874815325
-2.0746449669542004 -0.2807457612699895 -2.0559556394709966
-2.0199175303320187 -0.4965515451303406 -2.056379925803686
-2.0440279896909446 -1.1368221786996626 -2.056193004233588
-2.0368348133542984 1.0917564928531647 -1.9478359702183774
-2.1097915944091867 1.0917564928531647 -2.000686128025493
-2.1643929347208375 -1.3482435643672943 -1.9472342696339
-2.037479343586744 -1.3482435643672943 -1.9920728123647002
-2.016272323288789 -1.118038407339022 -2.0331830959067023
-2.0159221231275413 -0.4636453373201452 -1.9880118746450521
-2.0153564095899568 -1.1407932070573856 -1.9150422583949556
-2.0153249435553606 -1.2031389561143386 -1.9109835532078994
-2.015936542996045 -0.9746215983249858 -1.989871848291059
-2.0152645686316317 -0.9196976042490448 -1.9031959810128907
-2.0159002249562 -0.7517708091553155 -1.9851872981532848
-2.0153279880767645 -0.8798756797352428 -1.9113762564821632
-2.015560445149508 -1.2282353755348834 -1.9413601657680146
-2.0161007094441454 -0.7675000498595801 -2.0110471639290513
-2.0158867168997987 0.6654614705531448 -1.983444936292694
-2.016309032286484 0.09660866741907304 -2.037918074472326
-2.016152892544603 -0.4970032636469166 -2.017778098513681
-2.015950389159534 -0.2868251086765878 -1.9916578215252088
-2.0159365312993516 -0.028359306283373464 -1.9898703395712147
-2.0162866194876083 0.9881025501218894 -2.035027117787758
-2.0162612797466677 -0.803066870305359 -2.0317586240192953
-2.0162646349725093 -0.6356480012481105 -2.0321914040852005
-2.0158848482584664 0.443185676806903 -1.9832039061036164
-2.016072039932635 0.2867900185465431 -2.0073491734903666
-2.1652419173949586 1.0573198110476647 -1.8996914721746243
-2.16596522278696 1.0868241579396054 -1.9929883678284037
-2.165874253662903 0.3435996438442612 -1.9812545456162527
-2.1662375229051407 0.7137955078518374 -2.028111506675895
-2.165422236580092 0.7983337553262786 -1.9229502787393165
-2.1658593862949775 0.5148803885706076 -1.9793368504222772
-2.1654956073232694 0.8520730257638266 -1.9324141409557012
-2.1653448923999497 0.6921589439624959 -1.9129738953417263
-2.165743870272343 0.08527732261762544 -1.9644368006932913
-2.1657970272688014 0.33657498811994846 -1.9712933550708387
-2.166408584524009 -0.946911718150198 -2.050176208781537
-2.166403570279246 -0.12391238566538787 -2.0495294370643715
-2.1664212151744633 -0.626641729059748 -2.0518053967988235
-2.166050665811854 -0.40128061094708817 -2.0040093958285143
-2.165850678318523 -0.6527377753954483 -1.9782136358304592
-2.1658467845318157 -0.5831607048368446 -1.9777113884863478
-2.1663912537655188 -1.3477119932718822 -2.0479407685589757
-2.1664283487643203 0.9097733853383283 -2.0527255361975847
-2.166251187907429 0.3830206117591439 -2.0298741124945554
-2.1659220108271233 -0.9854106973820691 -1.9874145925566187
-1.8689588667455175 -0.13198957873621722 -1.8975453098446322
-1.4801433389671224 0.670070450156463 -1.9005595587971265
-1.9680818323307037 -0.10345487478269474 -1.8967768701249264
-2.03084122173176 -0.08917476300503877 -1.8962903349681588
-1.8556357087477415 -0.2764405738960071 -1.897648596138953
-2.00414373310085 0.024331374994198296 -1.896497304266941
-1.6557442667546567 0.03627157518891988 -1.8991982322172316
-1.7016372754383993 0.29470329194802036 -1.8988424517931775
-1.5394946484495071 0.1821404464929713 -1.9000994443992818
-1.7943148180638278 -0.23848713372085967 -1.8981239794950813
-1.6412367346225394 -0.2953553669848939 -1.899310700239747
-1.3855894440441636 -0.6998706745156761 -1.9012925773068405
-1.5435771631907311 -0.19260981783231107 -1.9000677951597245
-1.6630739613242294 -0.5197009399622026 -1.899141409578731
-1.6721411832144204 -0.4965481065341897 -1.8990711169537404
-1.434850530197925 -0.37243467813928965 -1.900910686238379
-1.6566959601429336 -0.8146725932267906 -1.8991908543205331
-1.485130541717432 0.18495238899742228 -1.900520896064823
-1.6148673748413498 -0.2149450026018218 -1.8995151257562704
-1.668247828791176 -1.1627246742951427 -1.89910129974906
-1.460182909015245 -0.38514225356945475 -1.9807167073466037
-1.5947547651296183 -0.7979551868169878 -1.9796734540623389
-1.664227962935938 -1.2704633412434179 -1.9791348708557712
-1.5710251460925524 -0.5231755689472879 -1.9798574152835746
-1.5795334576989166 -1.0097235665379654 -1.9797914555481353
-1.7109982665811838 -0.774214329249254 -1.9787722893005129
-1.4175581747674042 -0.46973659200461004 -1.9810471508381253
-1.4782676951766434 -0.4889699430670239 -1.980576507061768
-1.7154510581196707 -0.9712742509871286 -1.9787377695314408
-1.616822957498822 -1.0585428950898979 -1.9795023728657817
-1.7891544168330211 -0.1272090499278822 -1.978166392474906
-1.6150453484978324 0.18463038375188928 -1.9795161535810217
-1.9514376313318054 -0.6342348685482257 -1.9769083099798335
-2.0145947309978487 -0.83520207765619 -1.9764186916186566
-1.893643794668984 -0.3372994337207951 -1.9773563502435978
-1.925155519018931 0.02969427456559881 -1.9771120591201032
-2.022712032811222 -1.0700584704844034 -1.9763557631429656
-2.0326376638893118 -0.3838556353105823 -1.9762788157966216
-1.7775294287085774 0.13550397589513175 -1.9782565138969517
-2.0831129331631653 -0.7335903329134792 -1.975887511909133
-1.3388825851273196 -0.9021262730687281 -1.9400599757684904
-1.3389736846722733 -0.27614219241541127 -1.9518111174775419
-1.5993757573815612 0.7199087122633401 -1.9023087438266166
-1.857399168245363 0.7199087122633401 -1.923994322442656
-2.0841785575713314 -0.023603186551237942 -1.9106192513729539
-2.08442835372155 -0.6112275936068231 -1.9428410364663204
-1.7677777613309913 -1.348243353719944 -1.9297476981375543
-1.5928012945568786 -1.348243353719944 -1.9616383777602333
1.0063060468588356 0.5874060622362487 -1.9198354672038414
0.6775679053992485 -0.06994189119476124 -1.9172869379012947
0.6236058847791928 0.5291295074528285 -1.9168685994932102
0.5684677215040903 -0.05039822619251527 -1.916441143086201
0.8350893023158917 0.04662978149230135 -1.9185081162350217
0.7343506785484692 0.6761303288919212 -1.9177271440806207
0.8798958029967108 0.06424824126600248 -1.9188554768407082
0.8619635783780935 -0.18016055889882027 -1.9187164579860736
1.0369245117000412 0.7039519972029373 -1.9200728356287535
0.918333795121246 0.5129576759436074 -1.919153465838351
0.9757971818771211 -1.2238794143697431 -1.9195989484474594
0.9457107058237558 -0.3941659398497623 -1.9193657042443621
1.0499254667578561 -0.8105093142513979 -1.9201736250132124
0.9641608037425781 -1.1434975037386081 -1.919508737891058
1.0233353947968493 -0.8239268230213581 -1.919967486543096
1.1790403604389463 -0.395939325010094 -1.9211745830659668
1.2244404236685393 0.07295452259853191 -1.9215265452415888
1.0430805199623157 -0.8040027656340025 -1.9201205598367612
1.13631519263279 -0.4156176553771358 -1.9208433579102038
1.3108845949981867 0.19094368413586532 -1.9221967002247917
0.8399874781798924 -0.8691922505621212 -1.9985485015506073
0.8787604040379712 -1.2214478465583212 -1.9988490871086324
0.9965335146219277 -0.9535947723791321 -1.9997621184412384
1.2789504293800047 -1.1538545251854644 -2.0019515442851645
1.0179127415325537 -0.36998955395534744 -1.9999278600433708
1.2472937307222485 -0.5451245954760475 -2.001706126994086
1.039182743221301 -0.5300158698519901 -2.000092754881336
0.9904654562952229 -0.5137172951196401 -1.999715076061591
1.1606994738475829 -0.6672922937150225 -2.001034808478694
1.1101699357133865 -0.7904894795860611 -2.0006430802538904
1.2366725848565834 0.6823318301095583 -2.001623786985272
0.6259632873922037 -0.9472011650939445 -1.996889287565718
1.0092748529682654 0.07018713699311008 -1.9998608951575183
0.7331128483208564 0.15647349052121978 -1.997719960254227
0.692368857046169 -0.05327859097006399 -1.9974040940903397
0.997573466249797 0.0970477621861554 -1.9997701806246684
1.076461048054742 0.7356140354763272 -2.0003817534496053
1.099753492971438 0.2316307527859799 -2.0005623271978616
0.8507429244424323 0.2685007001501699 -1.9986318827178802
0.6825847904954496 -0.2460868249371403 -1.9973282435054582
1.3206772580218051 -0.9041777388975305 -1.9851266329089634
1.320704660427696 -0.17591123889983984 -1.981591965470054
1.0067740829980223 0.7675676047801971 -1.9416859442976229
0.8189950147726318 0.7675676047801971 -1.9911233560981343
0.565366132214213 0.3012089502898856 -1.9502487733908618
0.5650729602518685 -0.34399592144615726 -1.9880653575779443
0.9013394307041479 -1.3482435047626498 -1.945444450394127
0.9683884874736036 -1.3482435047626495 -1.9947018785790953
-2.0888212718586003 -1.0593302941130576 -1.8958408396205824
-2.126311555251034 -0.09274622017370289 -1.8955502005780287
-1.413997544682407 -1.3482434516124884 -1.9010723317356446
-1.384956596415697 -1.348243332752675 -1.9012974682946495
-1.6500833113700575 0.7394818305600463 -1.8992421044078756
-1.884024027325001 1.0214803555501146 -1.8974285063353367
-0.312026519060864 -0.033838897219365616 -1.9096152333844794
0.17638336294779644 -0.7778620076729408 -1.913401573940907
0.035118875270727656 -0.4709911761326374 -1.9123064375020722
0.3148352123119168 0.13791106930755903 -1.9144749057297803
0.4833617468475827 -0.00266656860506731 -1.9157813880022567
0.33339183371268655 -0.09749944932911248 -1.9146187637694887
0.4438818150238062 0.24973403442181308 -1.9154753244426608
0.13091351994234307 -0.16831015040188468 -1.9130490742945896
0.1339154779481706 -0.8437558098848199 -1.9130723466233546
0.5647810072533151 -0.3640496597224636 -1.9164125813075206
-1.2096516465855518 0.07299844153966739 -1.9026564994398723
-0.1124553427697961 0.725256140183798 -1.9111623856156692
-1.125702747937279 1.0640223178433044 -1.9033073034701105
-1.2846863492085867 0.23964513581944774 -1.9020748016730036
-0.8358551697526989 -0.10677510079805141 -1.9055543129612966
-0.6487477034248526 -0.08195973459763153 -1.9070048417369512
-0.695645755148792 0.14904236830844797 -1.9066412700693807
-0.04760956566809643 0.6457957345411013 -1.9116650949276581
0.24888594382955564 0.7238252632612414 -1.9139636417297676
-1.0693581308919557 0.08718135182017595 -1.9037441085318298
1.1438507963660147 -1.3482435643672943 -1.9209017522032898
0.911494817403709 -1.3482435643672943 -1.9191004396191644
1.0830568816590351 0.8664326788289652 -1.9204304544811954
0.9732395901524695 0.9614783366376667 -1.9195791087571525
1.4647214587230204 -0.5831577450822596 -1.9233892645305457
1.3322697229878062 0.4672189267554048 -1.922362447921674
1.3816755343949305 0.800874095538205 -2.082750275781245
1.443554928649676 -0.7433410367424647 -2.0832299885567322
0.8840610413981655 1.0182567605315929 -2.0788925775533733
1.04345259180857 0.878349963975531 -2.0801282419285263
0.6638164343926909 -1.3482435643672943 -2.0771851569655473
1.0448165910082805 -1.3482435643672943 -2.080138816172986
-0.5402730866974387 0.23939479942597502 -2.067850593609615
-0.5937666730770434 0.39278303751805344 -2.0674358908300876
-0.7039409910715304 0.6070367258067215 -2.0665817772999033
-0.47378066963328347 -0.1509456784320925 -2.0683660683055605
-0.5499441091803365 0.7731130996769499 -2.067775620137542
-0.4683979690994019 -0.07657240328708825 -2.068407797062666
-0.4363753832292535 0.34159169211312146 -2.0686560484188905
-0.5053760307399936 -0.12355872749344943 -2.0681211289594086
-0.05773922212360394 0.6720045712200556 -2.0715913810272895
-0.7785096354261143 -0.5969906457566416 -2.066003692595318
0.2968066700368882 -1.3397384229317169 -2.074339956639808
0.5542393894083806 -0.38521875081510054 -2.0763356737246035
-0.2507073822500703 -1.2818729815590957 -2.0700954179075812
-0.05817623535471306 -1.190578480978598 -2.071587993133265
-0.4412871107941009 -0.9843778733776974 -2.0686179708247097
-0.5524127631825378 -0.8149080320855313 -2.067756482185767
-1.100033778735975 -1.3113612612549685 -2.063511114233312
-0.9767622389878724 -1.0651490746438883 -2.0644667624451825
-0.2378935620097704 -0.23655515978250463 -2.070194755552141
-0.03522175678139594 -0.1683296549221731 -2.071765945046966
-2.0645157437309525 0.8440501054009695 -2.056034080466131
-1.913315361016347 0.7559540589414773 -2.057206243770578
-2.0817251830130723 -1.34824348520839 -2.0559006662984256
-1.890773391139506 -1.348243520338085 -2.0573809977587967
-2.1535451028655688 -0.3213581681499065 -2.055343890759449
-2.160474863942276 -1.183846234929024 -2.0552901685962053
1.320063611033554 0.5626676378058935 -2.0642574032307186
1.3202715935968516 -0.4306256181326429 -2.0374292304085504
0.851141185711948 0.7675676047801973 -1.9532240052231282
1.1111388785634988 0.7675676047801971 -2.0387921400883773
0.5650892572986399 -0.8216520342122743 -1.9859633889173685
0.564495636598821 -0.2563382947820165 -2.06253595573767
-1.3387121663858248 0.3854912037137691 -1.9180691753507055
-1.339540957784428 -0.8322355321720953 -2.024976978210323
-1.945344855526987 0.7199086248874665 -2.0213888295470857
-1.3842854198341883 0.7199086248874663 -2.016761404071528
-2.084328583830513 -0.49063334688497423 -1.929969143947179
-2.084878725924575 -0.5929780635013402 -2.0009333004718406
0.2580972366494777 1.0917564928531647 -1.9523493555533293
-2.023509244226203 1.0917564928531647 -2.0294099209743965
-2.158554727370765 -1.348243564367294 -2.0348885134781463
-2.091521554661949 -1.3482435643672943 -2.045681883806837
-1.1063619188429965 -1.3482435643672943 -1.9834405277931548
0.5407411889541334 -1.3482435643672945 -2.0717691111184315
1.3607958923991705 -1.3482435643672943 -1.9655090964707338
1.433587472203082 -1.3482435643672943 -2.0569168343385305
1.4656436068314551 -0.49079525313381733 -1.9657055290161976
1.4652847394204045 0.8342008232374754 -2.011996702522574
-2.1654433147716445 0.034388324587083685 -1.9257130906878575
-2.1659360096092346 -0.2344564089981416 -1.9892669869467174
1.575874395399454 -1.3482435643672943 -2.0403597827141047
1.5722979759849616 -1.3482435643672943 -1.9817292035260439
1.4706618029057057 1.0917564928531647 -2.030750194359654
1.5608475272166913 1.0917564928531647 -2.0054596597024643
1.4649363124587629 -0.13901471321440712 -2.056941137260855
1.4658956283163345 -0.05511361284629701 -1.9331966694077567
1.5994853539263494 -0.37007623792340716 -2.084438806061989
1.531853914759421 -0.09987242941925356 -2.083914501230248
1.6257840864345336 -1.1596340771778353 -1.9482007598588902
1.6256759141602077 0.8677522138688278 -1.9621541626066272
1.5317185443525954 -0.7076831158540166 -1.9239086648036103
1.5527361750936046 0.7100759981809706 -1.9240716057482177
-0.9354055389643077 -1.3482434749603271 -0.23133904105237188
-1.2878684116175092 -1.3482434749603271 -1.6269508335841927
-0.6005367990776231 -1.3482434749603271 0.1511597520887974
-1.77317898280862 -1.3482434749603271 -1.8366634296088955
-1.0466064122135932 -1.3482434749603271 -1.6220683032268932
0.7578709023835684 -1.3482434749603271 -0.6117243971549031
-0.6823406416399376 -1.3482434749603271 -0.7361468784426218
-2.092919167780045 -1.3482434749603271 -1.4088246198295382
-0.3382377576401921 -1.3482434749603271 -0.6578567610408429
-0.7253675647942726 -1.3482434749603271 -1.3304626822620296
1.4011114513682577 -1.3482434749603271 -1.9152560629281306
-0.10914688109855933 -1.3482434749603271 -1.9045587987288337
0.5397155799362103 -1.3482434749603271 1.1412070715538944
0.4961397498364756 -1.3482434749603271 0.5709074604207829
0.23012232520121212 -1.3482434749603271 -0.0599837678242747
0.8157170047735485 -1.3482434749603271 0.5193949253255394
-0.18704752238112576 -1.3482434749603271 0.9265379706727963
0.19884759100355665 -1.3482434749603271 1.3596062384906336
1.5300780168752999 -1.5082434618473055 1.4508770633337265
-0.06397446574266452 -1.5082434618473055 0.40582872547904936
-0.77574026746018 -1.5082434618473055 0.6149418007167353
0.925576104773256 -1.5082434618473055 0.633581642322709
0.10910043443906209 -1.5082434618473055 1.1739402083228636
1.2511206244941027 -1.5082434618473055 0.8730212906123087
-0.8505035952898895 -1.5082434618473055 -1.787970182059035
-1.64621174520132 -1.5082434618473055 -2.050463088321205
1.1244388735149595 -1.5082434618473055 -0.8534221124727004
-0.764385643269917 -1.5082434618473055 -0.806686403889855
-0.2653231124393446 -1.5082434618473055 -1.060408311001185
-2.2194692795664985 -1.5082434618473055 0.2552568260890686
-0.6171039572559527 -1.5082434618473055 0.01283906233744428
-2.204417704728919 -1.5082434618473055 0.7698350818808967
-0.6682664439292095 -1.5082434618473055 -1.174430803902466
1.031343488375086 -1.5082434618473055 -0.6820072221370792
-2.0307207696735707 -1.5082434618473055 -0.05950570928340926
-0.7094865546677811 -1.5082434618473055 -0.32857238292241736
1.6518056305371533 -1.3549387963267339 1.399166111324448
1.6508502225197503 -1.413489122830286 1.2759308219358134
1.6440917741624805 -1.4428839127326993 0.4071110801113591
1.6340838034774428 -1.5049964639093303 -0.8783962768301923
1.6300610013137762 -1.3805946640366373 -1.39655646318358
1.626102274226349 -1.4305439029974234 -1.9071955727719736
0.2421350850399988 -1.4096647236577002 -2.073916322472395
-1.3118510019563636 -1.391970036457518 -2.0618691980825665
-2.3138036759009832 -1.4278651670798128 -0.423645958315623
-2.30499272164043 -1.4837388419885222 0.7128888418909352
-1.816899043121489 -1.3733113605737748 1.623227204657862
-0.3050116252709422 -1.4484917560334263 1.6115064460477437
0.1036577963573943 -0.8306900711322196 0.4393971928858663
0.13530332069698497 -0.764783251670634 0.43915185579822613
0.2113847926101418 -1.004591599275945 0.43856202178118636
0.29526806888559903 -0.9579248869257655 0.43791170300364624
0.5312184649876454 -0.7763490529349631 0.43608245908320964
0.5596292787739758 -0.707997834977475 0.4358621996165935
0.38968344455933435 -0.7722119781151222 0.4371797324081308
0.09737757557351195 -0.6962458122935962 0.4394458813215617
0.12060789957258428 -0.944725865617076 0.43926578444676484
0.6251431200470532 -0.8267792721845264 0.4353542928792749
0.6650424955925749 -0.9569955935968267 0.4350449664642673
0.6343030860220193 -1.2568014922470057 0.43528327874940725
0.6709180389029314 -0.955092226764729 0.43499941535667314
0.5041111309495923 -1.1880055133099985 0.4362926131105286
0.45364701682399755 -1.3297138778569286 0.4366838443840906
0.41836403610485207 -1.249044358600742 0.43695738144544594
0.56028053021237 -1.0889321370787193 0.4358571506836227
0.45003262871343086 -1.250856526720316 0.43671186551728886
0.7053437761328769 -0.8452804775717343 1.1017448617437833
0.5652036489716554 -1.23417897176815 1.1028313209311964
0.5421374716472234 -0.9378481513516223 1.1030101452321321
0.5520940709157257 -1.0765761108045357 1.1029329550727553
0.464830165736534 -1.1235744325975516 1.1036094827271254
0.6185477965387558 -0.9721096523737807 1.1024177617287538
0.6747523067422591 -1.0994594021227404 1.1019820270985548
0.49512704651014955 -1.1896338302525 1.1033746012186436
0.6521059840113163 -0.9545984520577028 1.1021575964082917
0.49501462924961814 -0.806997366163367 1.1033754727517868
0.1150677866575025 -0.8975633032441287 1.1063210726040547
0.21035044790196214 -0.9174735676162532 1.1055823782357304
0.2446683062743062 -0.9887848000916545 1.1053163234427439
0.18743236649385903 -0.8829874235387236 1.1057600543989259
0.526817919103242 -0.769082382072218 1.1031289125612735
0.38818593041399974 -0.9224292879140146 1.104203679659262
0.4396475189716047 -0.8822036988221124 1.1038047153025152
0.3194992807490803 -0.9682714859944614 1.1047361841110044
0.29873781985337644 -1.348243534564972 0.5543687283497939
0.5443460677362814 -1.348243534564972 0.5491473900233077
0.12694161566058693 -1.348243534564972 0.46433406881018296
0.17837151275574997 -1.348243534564972 0.5381516004019089
0.3979060592547792 -1.348243534564972 0.5281145865925715
0.5029430575640081 -1.348243534564972 0.486864037302248
0.4344721272899421 -1.348243534564972 0.5275970147934882
0.3295024960933365 -1.348243534564972 0.7703528024652335
0.585665766434163 -1.348243534564972 0.5033253778741874
0.4951661047898705 -1.348243534564972 0.6514515820169108
0.590007191623563 -1.348243534564972 0.9548422563629355
0.4696591633948478 -1.348243534564972 1.0217892166359097
0.5852703690552858 -1.348243534564972 0.9017680528969046
0.6949382792345391 -1.348243534564972 1.0256745946212014
0.5212661007592068 -1.348243534564972 0.7916838094975716
0.5187283245553655 -1.348243534564972 0.8892890321704185
0.510891884566665 -1.348243534564972 1.0254051764843812
0.6652199142817665 -1.348243534564972 0.6996467750306483
0.43713645299265574 -1.348243534564972 1.0403662192411094
0.530622257541222 -1.348243534564972 0.7963542860587234
0.6866072366890112 -0.6926838755607605 0.6862980719983083
0.38255326230470604 -0.6926838755607605 0.4374574721871457
0.3262681855191445 -0.6926838755607605 0.5280113114578348
0.6937537792529607 -0.6926838755607605 0.7457272978856885
0.5121558800472268 -0.6926838755607605 0.6856502709547739
0.45780663742079275 -0.6926838755607605 0.5994346127653405
0.5901998534391014 -0.6926838755607605 0.4676237682495478
0.1571364999790299 -0.6926838755607605 0.4746438913481785
0.39042839682453434 -0.6926838755607605 0.690140322304939
0.6050053678505284 -0.6926838755607605 0.6575820171228421
0.34357927919978387 -0.6926838755607605 1.0332879620204247
0.13698835788602204 -0.6926838755607605 0.7606497419127433
0.33831731383001884 -0.6926838755607605 0.8312292562408191
0.28603077111061537 -0.6926838755607605 1.0633748751728715
0.13538884576467197 -0.6926838755607605 0.915840094543811
0.1975890205868347 -0.6926838755607605 1.093808547432879
0.2517575266173714 -0.6926838755607605 0.6255251783009713
0.20015631090465183 -0.6926838755607605 0.7506015249093482
0.18641467702001008 -0.6926838755607605 0.8746008143145271
0.4025423965963877 -0.6926838755607605 1.0197551014517712
0.08761498003134954 -1.0283863837825094 0.5961681537059217
0.08737545947392372 -1.083560053933618 0.5652729324008341
0.08698523435420402 -1.108879774876477 0.5149386664734559
0.0874303451736817 -0.7035946598421539 0.5723525161272954
0.08659904847346656 -1.1980394340626768 0.46512541295354537
0.0888122014812946 -0.7530791555378011 0.7505950724003845
0.08773421801976206 -0.697203299755043 0.6115483953000838
0.08878996300240416 -0.8404570792861753 0.747726580717705
0.088216594301475 -0.930005882104499 0.6737690336286428
0.0895011952341585 -1.120503926281977 0.8394668364832968
0.08867548012960302 -1.1278239193539399 0.7329596908572009
0.09009245718621378 -1.1173482557083763 0.9157323940385533
0.08928512275073341 -1.3135154309617487 0.811596129830378
0.09118265103988105 -1.0460179025718799 1.0563540623265795
0.08965630011435904 -1.2128653368029951 0.8594734682763875
0.0904444856511456 -1.0979163993708074 0.9611397588453379
0.089566587269713 -1.2884916589778503 0.8479016089794792
0.08955777361461892 -1.2814782963120295 0.8467647553099439
0.7493270457056989 -1.301008544992544 0.6998184698999209
0.7481291000997581 -1.057986255982334 0.5452981439422648
0.7479392765329603 -1.1258421246044368 0.5208132263712297
0.7472997220897983 -1.3082993915349699 0.4383185283357174
0.7482352246133883 -1.0783658698410892 0.5589869077366365
0.7485760376488935 -1.1058976796870779 0.6029476193713885
0.7473528581953652 -1.1908645578984314 0.44517243581831745
0.7496939216981422 -1.2961635721286295 0.747140984091913
0.7491079711190702 -1.065013646192338 0.6715605286653423
0.7501208510919272 -0.8784690285117573 0.8022096522863779
0.7491177196124845 -0.8979784075443544 0.6728179650401593
0.7488270393947692 -0.7448921339074488 0.6353237735108815
0.7513444231906797 -0.8113933732990375 0.9600354822692589
0.7501790424190998 -0.8782735812598982 0.8097156215040441
0.7500921729329313 -0.8351554151812567 0.7985105206614276
0.7521277192557874 -0.9041214216685127 1.061071090815712
0.7509017514045149 -0.9506534106749157 0.902936238070488
0.7498580503801484 -0.9500174900682269 0.7683115759091396
-0.5974274961497644 -0.9329308542450054 -1.9074025881221965
-0.6110335608382316 -0.8219041177171957 -1.907297108536552
-0.8990269806984252 -0.8292794349632302 -1.9050644698353005
-0.06198396619285107 -0.6204518806925758 -1.9115535577794092
-0.5927692260335391 -0.7591504097393109 -1.9074387008713956
-0.09032447198647259 -0.702945893762994 -1.911333850988613
-0.5343291185525308 -0.8245405238467943 -1.9078917516589127
-0.5434440029870407 -0.931208842666164 -1.9078210894758816
0.2133889858843646 -0.6063976452520909 -1.913688357631378
-0.7617539682367618 -0.7260027515399481 -1.9061286644283855
-0.14475800431479902 -1.209980927683456 -1.9109118607536242
0.028261232074976494 -1.2117315344081527 -1.9122531741885365
-0.03337090252294944 -0.9381446055878159 -1.911775377546478
0.155555363726817 -1.1803540949156504 -1.9132400085575512
-0.35389128943099213 -1.028855116895929 -1.9092905769538173
-0.16794720236688276 -1.1636583994086942 -1.910732088934368
0.21641492511867155 -1.1452241468629436 -1.9137118159070754
-0.32717595598765514 -0.9884177054265202 -1.9094976847668756
0.21517009553411048 -0.7429054430376162 -1.9137021654966309
0.17450146696356983 -0.8552329410962819 -1.9133868862304675
-0.18549277451623616 -1.32686915636465 -1.557792644280109
-0.27288825422149093 -1.2972479268886314 -1.5571151200144535
-0.19421217218326683 -1.3018252838065316 -1.5577250480666522
-0.2530120692677892 -0.9637430875600982 -1.5572692080480706
0.20089082328641295 -1.1376044009160045 -1.560788042488866
-0.3096144827916579 -1.1764781313137076 -1.556830403789699
0.1620549559149148 -1.194275652959669 -1.5604869715111598
0.07582415088898953 -1.1115788749696829 -1.5598184762634753
0.2372463405840669 -0.8901194918079065 -1.5610698848134654
0.19630135761236023 -1.3033660595483456 -1.5607524631388694
-0.3443951965954509 -0.8456963246281646 -1.5565607699635748
-0.3265942387913484 -0.7070949104783758 -1.5566987700169512
-0.4022155412671804 -0.9358775019445297 -1.5561125238220606
-0.6509428522902995 -0.6257119002910478 -1.5541842915002317
-1.0230741671949937 -0.7988482806191071 -1.5512993826158301
-0.8261605820741609 -0.677810705573431 -1.5528259344764817
-0.597750559859059 -0.9341132429757023 -1.5545966591534508
-0.27255424807763917 -0.6149011955087587 -1.5571177093619588
-0.6408131775437615 -0.7733838624374626 -1.5542628207384386
-0.5915202650157563 -0.8019496696654792 -1.5546449588590279
-1.0437623582602624 -1.3482433928652533 -1.739187897659463
-0.10007035841424256 -1.3482433928652533 -1.8810497743537953
-0.3815543313386579 -1.3482433928652533 -1.7446603743871083
-0.21014867201257692 -1.3482433928652533 -1.870020181802215
0.23218600464202932 -1.3482433928652533 -1.6378780686693124
-0.30198538100853883 -1.3482433928652533 -1.6920243931028593
-0.24853658224431943 -1.3482433928652533 -1.5936737315992966
0.2293797385109949 -1.3482433928652533 -1.8464111095817728
-0.5447459701611919 -0.5935898648099176 -1.7918775245662433
0.06053749544583176 -0.5935898648099176 -1.739301077505638
-0.21261575150084683 -0.5935898648099176 -1.7652392989921655
-0.6497393768853271 -0.5935898648099176 -1.7942338077101905
-0.7572056580402686 -0.5935898648099176 -1.7195069133899625
-0.6125368806995177 -0.5935898648099176 -1.6602240971910036
-0.5995612171649289 -0.5935898648099176 -1.6959588018934282
-0.971954780128198 -0.5935898648099176 -1.7387368134313328
-1.0806242366113792 -0.7843832279181757 -1.7559921833577685
-1.0817630678635823 -0.8043069821423514 -1.9028925634606964
-1.0792378711087602 -1.0985084339163507 -1.5771618088818602
-1.0805811297382526 -1.070238704384268 -1.7504317317675053
0.2433760823352844 -1.2643817597957148 -1.7893020634704948
0.24284624647285546 -0.9195314053629092 -1.8576467716372416
0.2437646024735456 -0.6816057649499585 -1.739185985361644
0.2436003293218838 -0.7708352638575601 -1.7603759451323633
0.9017868940157431 -0.6676967134152005 1.4421461938490214
0.45161149450511884 -0.6612710480951769 1.4456361063437497
0.6370034033565415 -0.7142424751531018 1.4441988853409464
0.21287978694044732 -0.6210994881399932 1.4474868355706767
0.6899617644244388 -0.5656995037491526 1.4437883341509166
0.4220713771866398 -0.8130952540086643 1.4458651113596561
0.037271087801176495 -0.5744308400950304 1.4488482138111922
0.9326434041721351 -0.6664334513290389 1.4419069837090281
0.1844481300651245 -0.6269488051521883 1.447707247424996
0.011057296884815326 -0.5698579598040205 1.4490514320158134
0.016934092575788706 -0.9759772491267087 1.4490058731009257
0.3572958786430458 -0.9558987006821446 1.446367273010349
-0.00330369430317623 -0.8351140274102986 1.4491627632938844
-0.041399157873835524 -0.698676200210928 1.4494580922577778
0.02952064190498377 -0.7890018805063457 1.4489082978984218
-0.30250839899694193 -0.7178959311358374 1.4514822997201915
-0.3279772212403267 -0.7740041982318306 1.451679742674804
-0.18035967301453593 -1.1382098596221368 1.4505353613368759
-0.14690028362546292 -1.2385824145202677 1.450275972793606
0.10950909521119312 -0.9653533351744786 1.4482882002588555
0.12801052427771853 -0.8972146315253994 0.6726625911642711
0.21062617373252543 -1.007753934443594 0.6720221266084427
0.1696610644932952 -1.0791122901312988 0.6723397020395687
-0.0771389816510114 -1.2649649316934575 0.6742529797657058
0.0342129439433696 -0.9682844442252104 0.6733897418436285
-0.18670981379808826 -0.7011622445245038 0.6751024100468441
-0.28574992880706807 -0.7605372122550863 0.6758702026344108
-0.11372136516185904 -1.1723396046711572 0.6745365788194085
0.31504207910703613 -1.0892450615419693 0.6712126590693213
0.4087467466735361 -1.203385892255471 0.6704862286812765
0.8383152943427666 -0.5887772790761022 0.6671560674963632
1.0045856833199038 -0.856126178160649 0.665867083005817
0.22308625624457962 -0.7805068074968746 0.6719255318196306
0.628960808448681 -0.6191997768208999 0.6687790545297361
1.141275864506778 -0.9368540303445665 0.6648074143261216
1.084127739133214 -0.7545997770091124 0.665250445991131
0.733909103990926 -0.8019782456251957 0.6679654597213315
0.8956638711187951 -0.7621068365653912 0.6667114818640449
0.6923913502858606 -0.8831852582851629 0.6682873194399341
-0.09309737059392609 -0.6135496419283464 0.6743766946133589
0.608333552684545 -1.3482435101434724 1.268761616541758
0.14535853458227177 -1.3482435101434724 1.2586477261035218
1.1083542516353813 -1.3482435101434724 1.1715154818332871
0.9445379422458875 -1.3482435101434724 1.1656383583851748
0.5258584981195151 -1.3482435101434724 1.28835411766456
0.9507603861954084 -1.3482435101434724 1.278249311950597
1.0944352745458965 -1.3482435101434724 1.3763414862700207
0.47882910501128295 -1.3482435101434724 1.2459462860422308
0.6199633490821241 -1.3482435101434724 1.2874977360127906
0.21835562107221906 -1.3482435101434724 1.0481479965942386
-0.12113516131668844 -1.3482435101434724 1.3011455067161384
0.32955658248849173 -1.3482435101434724 0.8639904368110751
0.2917612465888314 -1.3482435101434724 0.7247643347957142
0.005728509103367474 -1.3482435101434724 1.0544446225293658
0.17952408252502122 -1.3482435101434724 0.6924542304779908
0.330168961984845 -1.3482435101434724 0.8009801781238841
-0.16197543129624536 -1.3482435101434724 0.7120649075882441
-0.18834519611583878 -1.3482435101434724 1.1192709537494763
-0.05596079057947201 -0.5287940150335295 1.157353445055318
0.016377809804496546 -0.5287940150335295 1.2560046768544741
0.3985843278973623 -0.5287940150335295 1.3704991725718845
0.36554131683440094 -0.5287940150335295 1.445314156848655
-0.07289216501734086 -0.5287940150335295 1.205960777719372
-0.11893361440007122 -0.5287940150335295 1.093009651892223
0.3208561667034903 -0.5287940150335295 1.0880294354881714
0.24424367601209745 -0.5287940150335295 1.1151701200766582
0.15826357728466506 -0.5287940150335295 1.125647288748362
0.6884417607149982 -0.5287940150335295 0.936223598397276
0.7006213093437258 -0.5287940150335295 0.6915009960169269
0.9816435417995053 -0.5287940150335295 1.053652495532618
0.8218895101137165 -0.5287940150335295 0.713020268564019
1.128235978831861 -0.5287940150335295 0.9376401665496581
0.7424311085397515 -0.5287940150335295 0.7352844030383601
0.7474030813499437 -0.5287940150335295 0.7297509131764975
0.6221623542248563 -0.5287940150335295 1.0992000895332639
0.7088813155578282 -0.5287940150335295 1.0434031954991279
1.185641951005449 -1.298454601295549 1.4254788580563484
1.1840381001355047 -0.6342932518333879 1.2185930577736988
1.1829307014631758 -0.8144245337286484 1.0757461978504805
1.1833015984567183 -0.9716972288033313 1.1235893750245076
1.1851617337349705 -0.7343127379555118 1.3635341123357025
1.181651126832633 -1.0572385550731147 0.9106898160994975
1.1827600860504761 -1.2731873179223268 1.0537379757280607
1.183404933526763 -1.156242979602374 1.1369188927895562
1.1830330575921544 -1.1818545336221171 1.0889494389088414
1.1839971274058225 -1.3458201084177457 1.2133078556836037
-0.33775721176080975 -1.2982218685942586 1.282039286020833
-0.337101227361322 -0.7045872664869375 1.3666567900570037
-0.3376262379637003 -1.1100715919080981 1.2989340106731195
-0.33933602769557814 -1.138617136879572 1.078382821268049
-0.33697363684074866 -1.2058260887702996 1.3831150951600233
-0.34231376445277595 -0.9363991202252826 0.6942751317138252
-0.3417919940117067 -0.7626779472250609 0.7615799524345734
-0.338407793112103 -0.6486629349700196 1.1981187382731806
-0.33963983072799264 -0.8853363809133261 1.0391943065082108
-0.3412209773074619 -0.7630759037398024 0.8352372045184456
-0.8955344804664103 0.5137760051680947 -1.840687234762124
-0.3329921369804113 0.638630217760622 -1.8450482987434564
-0.48447981387312644 0.3597230508345295 -1.8438739027909339
-0.6644565411071426 0.3408907546633874 -1.842478647781765
-0.3679880544866869 0.6411902106893158 -1.8447769957258302
-0.916862036402108 0.46462665879046927 -1.8405218946111503
-0.3257242534097169 0.6392983464809412 -1.8451046424225195
-0.9154716973268984 0.508076985411337 -1.840532673102286
-0.8061005599288482 0.6411751132270418 -1.8413805639916159
-0.9457849793101539 0.5747072170842732 -1.840297671837503
-0.06609893031778252 0.05833770474060773 -1.8471173667237013
-0.06693334290205344 0.2084066446979383 -1.8471108980076856
-0.43156445714551855 0.2126293409500692 -1.844284124810585
-0.2793038856433988 0.3523898521410817 -1.845464512566003
-0.17646604940180094 0.24110315005206273 -1.8462617545669735
0.015047395883372228 0.04740518779765246 -1.8477464470489624
-0.319381753024625 0.21512966300119268 -1.8451538121433435
-0.12526104134241323 0.37133438429889926 -1.8466587172470232
-0.16493020393031765 0.05089034377319179 -1.8463511852751904
-0.1286625685468077 0.34459869989425046 -1.846632347182717
-0.3656161247434544 0.3173595849485158 -1.7447923274995538
-0.3105235713985369 0.085303295941412 -1.7452194280597415
-0.3182167151404711 0.1949397654090536 -1.7451597875856248
-0.14363110025623754 0.33999511038488595 -1.7465132484327004
-0.2930684675341066 0.20972452095335303 -1.7453547473394988
-0.25362171614244117 0.46747953814245163 -1.7456605550865365
0.013406594100293101 0.12456618890745233 -1.7477306704463498
-0.41079224305106643 0.24532439647855867 -1.7444421032992796
-0.30040380530918354 0.1493406069983998 -1.7452978807271766
-0.1844980003931015 0.32928765658579373 -1.7461964310974734
-0.8154487576138068 0.5049421611924226 -1.7413050364261704
-0.6761932124011241 0.3543610670778908 -1.7423846037680073
-0.5163189806222225 0.5447314007018091 -1.7436240158084122
-0.467982657427827 0.5885892847052121 -1.7439987392412597
-0.18477607520482514 0.6419806611182373 -1.746194275345005
-0.23599457220344006 0.4937086653842225 -1.745797208093046
-0.5050533201572999 0.4981688346447359 -1.7437113519292364
-0.053261498924110806 0.5999351320821105 -1.7472138314518109
-0.695569933379483 0.5308388683201735 -1.7422343873071247
-0.7634646488051122 0.4514806022796526 -1.7417080390217126
