# Exported By Aspose.3D 23.9.1
-2.3714680399661185 0.85677583948843 0.529023663536633
-2.238676820664816 0.2726948451290633 0.7857062623063827
-2.2623112565033496 0.7507317762519312 0.7400214011882185
-2.27518648888168 0.5579722278739623 0.7151338512129777
-2.250626421925348 0.2252978255590493 0.7626079375680883
-2.152399441774335 0.6322384692477129 0.9524785981970725
-2.0628233379105194 0.051242911001693314 1.1256272992061582
-2.198028253561701 0.5408473098177851 0.8642790767981299
-2.331896636474258 0.9842115891950776 0.6055143437088681
-2.101156333159532 0.9457397933081898 1.0515304357921744
-2.315414157447254 -0.2149962164750232 0.6373746246301519
-2.251228331616829 -0.6830372090629782 0.7614444589537115
-2.3934451037936824 0.08895345539854382 0.48654246721755967
-2.262842408124736 0.0031295765415897403 0.7389946964163551
-2.3404687908950486 0.23750367759437574 0.5889445517801448
-2.4098649710643207 0.23718165654897205 0.45480321348784786
-2.387418932826505 -0.47264336843917476 0.4981909273538898
-2.293044939138129 0.22311638727388816 0.6806138472101178
-2.2989869715734277 -0.03950161246352457 0.6691280250639571
-2.3273586257769288 -0.4991428262997172 0.6142862217378845
-2.445958669482646 -0.23390613131402377 0.5591411516298299
-2.2851222200029215 -0.6812900297709887 0.8700345830372348
-2.429027019616438 -0.8860174833465186 0.5918696702170153
-2.4384268402322737 -0.5718748150815516 0.5737000171606058
-2.4935356066151835 -0.07280615317646391 0.4671759454291441
-2.3656387580949914 -0.41988643558265637 0.7143978297175577
-2.43140036662789 -0.8007437847844123 0.5872820409905705
-2.447267064117829 -0.041675029604006375 0.5566120526657392
-2.326148996774586 0.02808033215839334 0.7907306973111562
-2.466521176800934 -0.36377462744759675 0.51939426291647
-2.2157737957965873 0.26114305647510566 1.004083610070262
-2.312997047398271 0.35710078636157117 0.8161531353500815
-2.142665730467574 -0.12285682807845116 1.1453999433219415
-2.2240817990494 -0.36780426808614375 0.9880244167234427
-2.2690513752048718 0.06607601331160473 0.9010991837607885
-2.30394444053822 0.8198330089899981 0.8336516316113914
-2.2779590682129465 0.07663341419057024 0.8838808028890238
-2.3742270188507977 0.7601174167071003 0.6977969045862746
-2.3499843490984955 0.37818457422647755 0.7446574689058066
-2.2265517913381405 0.1283646163239605 0.9832499742343151
-2.4889165399301794 -1.0119172845999493 0.4606598060129586
-2.461722887427721 0.8417373668118451 0.4465915440893582
-2.326246962629627 1.0711613465100527 0.665931474328659
-2.1250290756332557 1.0711613465100527 1.0838460628331046
-2.062919173503828 0.258403915159802 1.128516829928174
-2.1068404402842784 -0.9363748254086364 1.1512388929179787
-2.198776681626325 -1.0119642447680235 0.9036321012254214
-2.388231780323539 -1.0119642447680235 0.5923735589840934
-1.930938865654387 0.0917995520521846 1.380556367355814
-1.980558507034502 -0.7778927749224153 1.2846426884539828
-1.9749112567913878 -0.4088949795075396 1.2955586993607726
-1.906372247823904 -0.7600868286045324 1.4280431010112735
-2.01644572022597 -0.5838553636835088 1.2152734921641555
-2.0350082779890513 -0.9871029241785727 1.1793924749829559
-1.8898671534107239 -0.05555533404914034 1.459947086645974
-1.9609426482963126 0.3780030131323847 1.322559713326967
-1.9664679089545252 -0.8187782051997818 1.311879505613231
-1.7666700970833846 0.41236522455402647 1.698084295492602
-1.7470609537410804 0.4299129026914773 1.735988339652572
-1.911165354027509 0.9567764378811837 1.4187781318061723
-1.8713622447139489 1.2461891301770656 1.495716669445931
-1.9839481938288508 1.2195698736168317 1.278090498197702
-1.8122598706814963 1.2625925457696603 1.6099602626605387
-1.8891796256672067 0.6131920409285598 1.4612760627004893
-1.957452833369652 0.7219480851728455 1.3293054490677476
-1.7905976672169375 0.2711824468476731 1.6518328270245057
-1.9550357491162003 1.0613815208938262 1.333977619936301
-2.2587247168280884 1.23768309613715 0.7469535035786279
-2.0877151737812585 1.345028200678917 1.0775112009890662
-2.4659848072093316 -0.3122687058944421 0.3463242929459692
-2.4493336040437814 1.3969755739643046 0.3785107035956393
-2.5690508015233657 -0.8936435666138518 0.49531247411183943
-2.608186301922968 -0.8138251215447636 0.41966440986576947
-2.3326412344353997 1.340837705618462 0.952286984130831
-2.4824534434665146 1.182968220848814 0.6627032686317754
-2.030312238028864 0.4717738522596947 1.5366823057719508
-1.9989037632631461 1.0833005295242613 1.597394198878913
-1.853241209936758 -0.1045194763364441 1.8789567208798665
-1.863357318183974 -0.30998176715607784 1.8594025054286343
-2.0691893820217127 1.3191341868471913 1.4615336387957996
-1.9815697052837262 0.04890414436871937 1.6309005529125413
-2.128538448485522 1.397619098436479 1.346813194519988
-1.8954548508094855 -0.3683710863724766 1.7973586785859417
-1.9922290747019795 1.0466976720553431 1.6102962255284252
-1.9880158534408607 1.0962453723403502 1.6184402898533892
-2.1515517147260934 0.12984242654533334 1.3023290554313667
-2.147621599184517 -0.26853018742216406 1.3099258826074072
-2.1333614254308766 -0.16956898288893818 1.3374904858259855
-1.964510946525812 -0.425227452715528 1.6638747595867978
-2.067703848752952 -0.1964877129500981 1.464405142034736
-2.198378549557741 -0.5677368715740925 1.21181381035683
-2.17411484718122 -0.9263049298573911 1.258715015081051
-2.06568435593355 -0.09684886857399927 1.4683087773782664
-2.0787945659127125 -0.3792517643968437 1.4429670289233705
-2.172612889899833 -0.9372425210123465 1.2616182655763075
-2.4985028154980307 0.5053649946717325 0.46561920397609624
-2.5388882294741926 0.011761679456727486 0.48651204899523914
-2.1871669968046863 1.071161411516325 0.9918703249145935
-2.5648582061304164 1.071161411516325 0.5023310790780497
-2.1479694377352905 -0.2210336637249935 1.1725164294024422
-2.1479713550654993 0.8091867269816702 1.172517421307166
-2.2213427335338545 1.398035588562493 0.8353739524795716
-2.0535613823487173 1.398035588562493 1.3696928902577885
-1.9418127421572708 -1.0119641152024315 1.5173157930121008
-2.1803634406355226 -1.0119641152024315 1.235759375467833
-2.500331207822547 -1.0119641152024315 0.4297917829130232
-2.584768952131515 -1.0119641152024315 0.40125032712894493
-2.5665129049904443 -0.3119014592879762 0.35864205763952284
-2.539859935767494 -0.6198437597344891 0.344853506267887
-2.6072137907486637 -0.5568519060357687 0.37969810769735435
-2.5803512009957292 0.7414688402375025 0.36580111199360454
-1.7981983164520388 0.5907373668312389 1.8527808874554577
-1.7526644014250072 1.1427037191082825 1.8292245353938914
-1.8286963507728136 -0.9954683723980604 1.8685586309949587
-1.8298095424643082 -0.8198586995938493 1.8691345255865237
-2.60048137956166 -1.0119641152024315 0.315160827226889
-2.5589240350328826 -1.0119641152024315 0.2260136167854635
-2.587701409022373 1.398035588562493 0.3496577440323012
-2.5190051245083884 1.398035588562493 0.2861856807306393
-2.609263727416479 -0.45442487854924196 0.38075861457057825
-2.594803750414971 -0.2681491220173987 0.3732779420027251
-2.4828733413858055 -0.4515547470775314 0.31537226620215086
-2.4963293190071996 -0.3007055281628603 0.32233353333663606
-2.6641356757694847 -0.8814465149433879 0.311516048189485
-2.696788881352827 -0.3256695415174129 0.24839811770215936
-2.6553525617276676 0.34239391545444336 0.3284936150669161
-2.6623903688494943 1.1555640159010072 0.3148896882008423
-2.584304007285435 -0.2593900570170108 0.18770299919327316
-2.593865319336521 0.0881172363770997 0.19264941402960278
-2.6945939618151926 -0.09332576111614399 0.24476000815494092
-2.575041647099199 1.2730861975086454 0.1829112430409966
-2.512290657381776 0.3652050821934171 0.25681660980609256
-2.495781308729264 -0.9469086459426639 0.2887288236538619
-2.5055583861312125 0.7265279692937398 0.269829944514272
-2.5349811018783424 0.4576913287592886 0.21295647138898977
0.6827582188491713 -0.517451895806051 -0.9784214380700181
0.6530785110352727 0.12326110203114571 -1.0357916662824802
0.6541067677218152 -0.11659711928353078 -1.0338040685224945
0.6897083880072464 0.34774574517157353 -0.9649869125950987
0.6410710782947183 -0.11444111117923683 -1.0590017720183864
0.6569271429774088 -0.4156961004526947 -1.0283523446351583
0.6734301997737749 0.11028690665363677 -0.9964522956000603
0.6673155915156166 -0.46116812683948516 -1.0082717000699413
0.6669947860024659 -0.10749553692802855 -1.0088918101335804
0.6620578638433896 -0.17432247934450507 -1.0184347730464678
0.594973470676471 0.5207750639530964 -1.1481074426567253
0.6320633076752473 1.328156142048997 -1.0764135962642627
0.6117627010362012 0.5313567512728254 -1.115654226361979
0.6734556481865257 1.3419035561410118 -0.9964031043729664
0.6092648475937733 1.2035756123166221 -1.1204825226151607
0.5636968243666047 0.4053750836159079 -1.2085645181700233
0.603772083536213 1.2863371675824697 -1.1310999158009478
0.5910250068244355 0.23814232928141132 -1.1557397372096339
0.5899001548364007 0.7593550421096421 -1.1579140515817106
0.8115339239474184 1.3045330874228458 -1.0777133088659048
0.711555371614673 -0.3498791334013792 -1.2709696710796594
0.7641564134493192 0.5500557623020865 -1.1692930038702283
0.6890075594635213 -0.6488605479037867 -1.3145541004451509
0.8389657835648606 1.304910214662524 -1.0246881222160582
0.8308414942874184 1.3459556245537003 -1.0403921962869174
0.7199716071345065 0.31287175776419685 -1.2547012712864318
0.7806596621336627 0.3816808679768138 -1.1373925839198529
0.7836485878690237 1.3397946435270809 -1.1316150556293803
0.7123819463202641 0.1869381901791201 -1.269371920192361
0.7489862350766556 -0.3814531147286707 -1.198616627967899
0.8028314357516342 -0.5764138635482073 -1.0945350288416855
0.7776419132162014 -0.8228585010410814 -1.1432258267930053
0.797239364643318 -0.40413267970295397 -1.1053443803917766
0.7528727695437613 -0.3819961487505066 -1.1911040415660532
0.7304452414919015 -0.5240691540204923 -1.2344559643897024
0.7364791433654424 -0.8380477545872533 -1.222792563601958
0.8356060777174289 0.1554651397978052 -1.0311823603804797
0.7926674417191011 -0.7259023097668662 -1.1141818077403467
0.775997590957304 -0.9359755551617035 -1.1464042658746594
0.734646367696528 1.398035588562493 -0.9714915746079642
0.6671052419563804 1.398035588562493 -1.2835190265144214
0.6717252169545547 -1.0119641152024315 -1.2203654823691612
0.7527481661361191 -1.0119641152024315 -1.0681482464326215
0.7827775739334664 -0.8586367537477149 -0.9379709535248233
0.8248343975003336 -0.3807030946648302 -0.9597284781674417
0.7784579049566395 0.006036166876872862 -0.9357362316357145
0.7732423343669652 1.676662246999361E-05 -0.9330380272539753
0.8207847856010018 0.2831614332430219 -0.9576334666278121
0.8613379411192638 -0.7980062765488495 -0.9786130890931576
0.8585576524421695 -0.33872488984008564 -0.9771747446278582
0.8265354132806491 1.3602090691259172 -0.9606084755048263
0.6202949359029123 0.7322989780533385 -1.2900097137875663
0.5869538606135141 0.39781361465119325 -1.2727611627630908
0.6169103690463414 0.9908679764655353 -1.2882587542394839
0.6278017350847686 1.007390083904294 -1.293893254063183
0.6208978441425628 -0.7675402065242208 -1.2903216201506462
0.6156209718956758 0.022120086440684084 -1.287591702191791
0.6337241840342202 -0.5903682005214713 -1.296957152333043
0.6739008062858766 1.1509762886101766 -1.317741980443225
-0.6031035077247147 0.23668011122907195 -0.6571012624746965
-0.4756679211728461 0.1869377048329782 -0.7230283267025754
-0.3635421924517632 0.49061578108270665 -0.7810350445983166
-0.6651842823974636 0.39982489211764816 -0.6249846196286187
-0.6919005969485527 0.7229283014991157 -0.6111632983399615
-0.6784553458372069 0.5687981485188811 -0.6181190157934757
-0.746082947176332 0.49248698559779436 -0.5831327977542374
-0.32650864161781495 0.7659921254354115 -0.8001938474922193
-0.6824776894715101 0.38277503727499806 -0.6160381111239046
-0.7384940290909452 0.1775864080559735 -0.5870588211168857
-0.2736320057584591 -0.17899230063381097 -0.827548854541487
-0.3057690357468217 -0.9791967167688058 -0.8109231999856169
-0.46279576184619525 -0.25377789037069615 -0.7296875629303947
-0.3321627958689973 0.35714196616836347 -0.7972687478355366
-0.2416893926335331 -0.934195290915487 -0.8440739301822394
-0.29607362129971504 -0.2555986015366326 -0.8159389905372627
-0.17847198595242802 -0.03934023435026634 -0.8767785941097587
-0.2526482080072294 -0.29055642728133096 -0.8384045363766945
-0.4251682167269418 -0.6160687670711557 -0.7491536606738595
-0.3200358344749829 -0.10282455684748823 -0.8035424660671923
-0.28028222595115454 -0.45000697278976665 -0.9141799501588297
-0.4630123131659627 -0.3371932092198253 -0.8196470294720851
-0.583326253256892 -0.3253348141191014 -0.7574042519991269
-0.6307088701067713 -0.9266496300400898 -0.7328915008212953
-0.4986682525440225 -0.4469255470018106 -0.8012009150931481
-0.40619137914663983 -0.86622003707731 -0.8490425654282465
-0.530314458125634 -0.5488778818615483 -0.784829181855993
-0.6261501661874005 -0.7741910848403333 -0.7352498841757432
-0.32590676091400766 -0.9447242194893524 -0.890576718689111
-0.47998924129819964 -0.10054619228996625 -0.8108642470354812
-0.5849330333765937 0.18175527521289522 -0.756573006198657
-0.6566380607728743 -0.37882477158308997 -0.7194773873489544
-0.5043392336137518 0.8232427468846395 -0.7982671103111773
-0.29658740536900524 0.9225612022167055 -0.9057446877661682
-0.610057118101264 0.5371461125762412 -0.7435754033145062
-0.267963592585598 0.8262395886778556 -0.9205528272731842
-0.6811416008527221 0.24538606331254315 -0.7068008147810789
-0.6243828151316433 0.22152684125813726 -0.7361641991619947
-0.8168746345145527 -0.15940192933487973 -0.6365811793543125
-0.38102173362556385 0.711652868754379 -0.862063738569593
-0.2021179155538665 -0.8152067704235016 -0.9283271217175386
-0.20902236010919545 0.46945762982886535 -0.9416732625020925
-0.431575651840397 0.968631970343104 -0.7604693064449921
-0.8003607534849815 0.9686319703431039 -0.6170844805846767
-0.8245739466196467 0.7043054954520234 -0.6198340943763273
-0.829706020053127 -0.500714379110001 -0.6297542804262006
-0.5802684831132726 -1.0119642155439763 -0.710261641598836
-0.21576507235006048 -1.0119642155439763 -0.9029884586946857
-0.9715165256201388 -0.8709539296121456 -0.46650775390381605
-0.8842949126412835 0.7607634229733694 -0.5116306668711114
-0.9409337258962109 1.1514717326315658 -0.48232934861077886
-1.116897622719507 -0.36463206938564674 -0.39129682432498547
-1.6112944025983267 -0.8534290133279869 -0.1355273870504055
-1.6216768767037624 -0.1458956007539423 -0.13015615554659993
-1.222515075418798 0.543248170076414 -0.3366570743454378
-1.3339237474916112 -0.4038540051128232 -0.2790213159358543
-0.876848281181392 -0.4752955962364662 -0.5154830801868988
-1.025573152506967 -0.38795681252693026 -0.43854229457538996
-1.9869989067226013 0.4684752497791986 0.058838218698370026
-1.077453960888311 1.3624069999410522 -0.41170246530243404
-2.07746922347215 0.8226626959578109 0.10564180429364156
-2.428722303114551 0.24869746151278385 0.28735779876901135
-1.6506170622546352 0.22201123506780948 -0.11518434489932383
-2.15867629410159 0.6142758016394618 0.14765317573238745
-0.8576157499422539 1.3885384250792903 -0.5254327681553477
-1.6205182528259159 0.47895643177085634 -0.13075555382205456
-2.073462847447893 0.9525713620648371 0.10356916024954865
-1.2555755529264587 1.0672268117925827 -0.31955368679862595
-0.3308017429606488 1.0770941632935713 -0.7979728161448961
-0.47805219924966236 1.2539373516689731 -0.7217947990617399
0.2060279141349488 -0.914757705577774 -1.0756943242447288
0.4304545870615619 -0.4588906158907522 -1.1917984053795523
0.5228365404846871 0.821224202680464 -1.2395909501593763
0.4574431292113388 -0.39484905809475335 -1.2057605599069374
-0.10416839653340981 0.8761990912378296 -0.9152184897464875
0.16635332387893165 0.5526769005327035 -1.0551692155933976
-0.07224777880733246 0.30749994039289247 -0.9317321863673613
0.2118485049677552 0.5004014468998713 -1.0787055275990007
-0.024788083520845827 -0.18273849019092608 -1.1364278058564388
-0.2461386427634462 -0.16680385580441287 -1.0219151102200104
0.19580622624597943 0.7495457348452224 -1.2505492661314521
0.08458735942544315 0.45446146430682594 -1.193011700882792
0.3611912528158938 -0.5637791618065843 -1.3361089560424515
0.3453202315384458 -0.6997119870418506 -1.327898299447761
0.16189652114060582 -0.42011867792379487 -1.2330065422587881
-0.10814336429730131 -0.7731537516644289 -1.0933050871702767
-0.7703569349329826 1.208643869516243 -0.7507179199185132
-0.4001006186366277 1.1635272215855152 -0.942264979933122
-2.175121309521423 -0.4652339656035115 -0.02398221245713239
-1.2793220420766431 0.8163637045734063 -0.48741175704577394
-1.542551672911702 1.3071243107279553 -0.35123349437751683
-1.7014363504680543 1.2320218069640736 -0.269036671453019
-2.5137592145460967 -0.6339758150303615 0.15120749332783034
-2.4592426584076144 0.23373421413048345 0.12300409586819205
-2.049198765670061 0.3757350980446052 -0.08912652466106841
-2.371590747925551 0.18982941986527538 0.07765857435097234
-1.9789096483642183 0.9811952957452666 -0.12548964171908966
-2.2622594533783964 0.06512967845037479 0.021097518897332135
-1.1327474461210687 -0.24381680512440979 -0.5632401269948968
-1.9235776382900445 -0.5827280390308517 -0.15411490316074322
-1.364136753795738 0.14352281407930711 -0.4435340216480722
-0.8674199092777122 -0.7487487832209611 -0.7005037127498633
-1.2345021594421817 0.10817802682740749 -0.5105987125978283
-1.1889902751659471 0.10633176782646574 -0.5341436657698361
-1.988849028667235 -0.5827125902259359 -0.12034763875623927
-1.0241501408517057 0.02106873053201394 -0.619421463097225
-0.9606261597983481 -0.6300451366659408 -0.6522847290987567
-1.9093220785316578 -0.6716560073358723 -0.16148982275130042
-0.20124904325051096 0.1302852510224981 -0.9266476167821666
-0.23935281030752364 -0.4268019506995516 -1.0003013677087695
-0.550891958532957 0.9686320110800075 -0.7682721737984072
-0.281962811238024 0.9686320110800076 -0.980818300011568
-0.8415214856541798 -0.36401814325964754 -0.6525932592377439
-0.8614910788277217 0.7061733271184556 -0.6911940474356382
-0.5541629611202943 1.398035588562493 -0.7207696317578856
-2.1376748604274924 1.398035588562493 0.03913850473627545
-1.7575335645344035 -1.0119641152024312 -0.0835575538281152
-1.1322161292027837 -1.0119641152024315 -0.49154763256320844
0.07644881028531869 -1.0119641152024315 -1.0257649586541686
0.25084029121240015 -1.0119641152024315 -1.1934037164846152
0.4918376092937782 -0.8907895671948307 -1.3474670423712398
0.49643980947257704 0.8550885770334608 -1.3385710897695864
-2.4852247176450772 0.7270326873993105 0.30913438113365543
-2.52402774048742 -0.9607592785825672 0.23412898402021642
0.5674123586038609 -1.0119641152024315 -1.408444557523172
0.5822410742477391 -1.0119641152024315 -1.3056727551715122
0.48827405279838776 1.398035588562493 -1.3577423570048381
0.6125239673262248 1.3980355885624933 -1.4062563438253481
0.47563786698564114 -0.7024359790814154 -1.3787807910421623
0.4870519928058641 1.218526404026458 -1.3567175346992995
0.578627884751302 0.45034844415740793 -1.448596784387455
0.5212037396771243 0.9947702585973254 -1.4188891854115955
0.6743814529343888 0.28217150792039597 -1.3428262319821895
0.6318609255201495 0.8374505778437209 -1.4250174843785788
0.5519867225621689 1.2165738713333747 -1.2546713335867672
0.582600707466455 1.3897255914245004 -1.2705090648681985
-0.7918403890783525 -1.011964201927185 -0.14206098437751608
-1.6995406042302328 -1.011964201927185 1.7282258780838844
-0.8054689924076841 -1.011964201927185 0.2869770029533594
-1.479785341884872 -1.011964201927185 1.5324613850391466
0.11052872818636539 -1.011964201927185 -0.4634718707322969
-1.1752946484505085 -1.011964201927185 0.46005134504293554
-0.9617593545065617 -1.011964201927185 0.7100473588295728
-0.42765021442083206 -1.011964201927185 0.07185033261311896
-0.12346178449023881 -1.011964201927185 -0.2891970237846782
-0.5650374643214497 -1.011964201927185 0.31406431433139825
-0.4806857154507721 -1.011964201927185 -0.5513581972934065
-0.0824249158382887 -1.011964201927185 -0.9398575959630607
0.33659087165670476 -1.011964201927185 -0.22951343054017076
-0.10342289943672855 -1.011964201927185 0.884556175495574
0.05137422915279832 -1.011964201927185 0.7225272745836386
1.0056432427447541 -1.011964201927185 0.20413149124451002
1.0137535062507708 -1.011964201927185 -0.1806092102448269
0.11872081821283453 -1.011964201927185 0.6124780150780103
0.1300726977504436 -1.011964201927185 0.5655461784510917
0.6500932647226798 -1.1719641888141634 0.6121570576032556
-0.8980569474100664 -1.1719641888141634 1.3565516417174814
-0.5351116575898107 -1.1719641888141634 0.7597394050692434
-1.0392235888559924 -1.1719641888141634 1.3633323162578073
1.0290568387977381 -1.1719641888141634 0.5543350058792329
0.8212892455108232 -1.1719641888141634 0.4698010960850555
0.1399868880299464 -1.1719641888141634 0.7154668004241385
-1.3581111943785393 -1.1719641888141634 -0.26573788381359187
0.3860957900607507 -1.1719641888141634 -1.0014484492717335
-0.9172842942260698 -1.1719641888141634 0.6775656375679626
-1.5577322095001986 -1.1719641888141634 0.40403614866675674
-1.5136898647426116 -1.1719641888141634 0.4868483002636992
-2.062531358430118 -1.1719641888141634 1.2545141621721514
-0.6280288661194677 -1.1719641888141634 0.5345767005079742
-1.4407654789353148 -1.1719641888141634 1.1088903105563035
-0.8228209855091242 -1.1719641888141634 0.4665509181986075
-1.128265146175854 -1.1719641888141634 0.8084362710017112
-2.218520970254687 -1.1719641888141634 1.135646087813231
-1.9161746928246632 -1.1719641888141634 1.0432660026161242
1.4812841586689798 -1.1095457678508527 0.21689917794179103
0.8667823015542098 -1.0653479777218948 -0.9709190282233228
0.8530220778151718 -1.1549693646608894 -0.9975172506340508
0.6660908380025476 -1.0498329751967481 -1.3588515245851616
0.19259986142412178 -1.054483597433597 -1.2488905249230602
-1.7686521659900516 -1.1492514846017214 -0.2342634321178978
-2.3050104018405695 -1.0200682742368368 1.005696724759047
-2.164245658822477 -1.1660884115372174 1.2777918773211492
-1.707947714533224 -1.0374936410155713 1.9862336993456284
1.162633746545667 -1.1496738626889458 0.5011772025984845
