# Exported By Aspose.3D 23.9.1
2.7245279429289986 -0.08720679671411881 -1.956771504321311
2.4102826751485407 0.4162711884985547 -1.963405989352301
2.4280685327460505 0.22892114526331447 -1.9630304864630215
1.9492501304749783 -0.028936896958933617 -1.97313951227228
2.2386406623518513 0.11606463927085914 -1.9670297714147382
2.471510440801388 0.16535075796660476 -1.9621133216931381
2.4979893601791057 0.1328925998396417 -1.9615542870400817
2.18092177005103 0.4433879767478953 -1.968248358188311
2.4304042375431996 0.519558693611448 -1.9629811740306562
2.0558081642485604 0.018239253927167243 -1.9708898119506302
3.310972603843694 0.29416705720306285 -1.9443902253546512
2.7949584633141606 -0.40373719147859505 -1.9552845440354152
2.89715948172113 -0.2990783287401708 -1.9531268309485577
2.800290041688511 -0.5406543678620443 -1.9551719813955193
3.4208103174418403 0.20690210106057716 -1.9420712829824969
2.8502484163782875 -0.07715126558833649 -1.954117238100917
2.94630899391794 -0.40079637605714824 -1.9520891647165302
2.7361049389865526 -0.8833563702667281 -1.9565270856619938
3.03960722565817 -0.2119313731116613 -1.9501194111979798
3.5170405039433867 -0.7135137507539279 -1.9400396287387172
3.1579193936590846 -0.34644735717752706 -2.027639377318759
3.447905959926569 -0.3035933304181957 -2.0215170527196378
3.186069133703712 -0.8454570680261323 -2.027045067561061
2.0561019487697063 -0.852669640128269 -2.050901434363033
3.419240200979495 -0.7620640533724646 -2.022122256896552
2.8870160335986648 -0.32137351768718647 -2.033358808831158
1.8697827505429163 -0.8823087587163457 -2.0548350876535113
3.425979767183767 -0.6869735567367649 -2.0219799681950756
3.432008510182202 -0.892418795461922 -2.0218526867073976
2.571246543227125 -0.45101585066916144 -2.040025473923397
2.134656234468154 -0.14709097142017216 -2.049242961552074
2.218420331878095 0.2018504077485992 -2.047474496892842
2.4729801172827703 0.09800932811732455 -2.042100118154578
1.9382898749420092 -0.14139148459974862 -2.0533887349540665
2.1384598732056626 -0.12079168714129533 -2.0491626574493407
2.806297399862985 0.4305076600154766 -2.0350629763148045
3.2824149477677325 0.5339491497876858 -2.0250109721370597
2.8122235146747947 0.34421833239139144 -2.034937861558778
1.8481655045097525 -0.6694803190736858 -2.0552914805094202
1.8066453919739591 -0.6823068891662208 -2.056168071482609
3.6405314705605565 -0.7704811515475599 -1.9538812588407353
3.640967725704879 0.37972902048289836 -1.9745446673480533
3.277353038210988 0.6271567175616326 -1.9781467305858758
2.6765529360802995 0.6271567175616326 -2.0256067062173635
1.7432069727564583 0.5216116906303009 -2.045545000790032
1.743217795213543 -0.2582676389984534 -2.0460576110244437
2.402747470651001 -0.9400781820048394 -1.9661988913026707
2.8702804322718354 -0.9400781820048394 -2.023886660991582
-0.2980769613234146 -0.15552574712281575 -2.0205863575199547
-0.20988928332454387 0.02917256891620046 -2.01872450607529
-0.17310203367118565 -0.01547079673100904 -2.0179478398168444
-0.2974179922587647 -0.29246568058898215 -2.020572445117079
-0.4076111502023455 0.22904677976194165 -2.0228988845354303
-0.36740833201374534 0.4471311917951858 -2.022050107508724
-0.13443219437477189 0.5423591100378773 -2.0171314276173997
-0.1756965855891398 -0.04315158914785039 -2.018002616973317
-0.7338688656726873 0.00015136313788588485 -2.0297869602016174
0.005535154622015426 0.4681059232183621 -2.014176384272921
-0.18363765021921585 -0.9419468194710152 -2.0181702717181658
-0.09361990074424342 -0.26972639246270524 -2.0162697831158054
-0.32371984126589237 -0.5879525061547368 -2.0211277396512193
-0.00656139310990328 -0.14900873302522688 -2.0144317711408055
-0.33100629665516956 -1.136762725935663 -2.0212815740394334
-0.17493502890206533 -0.6554928836381917 -2.017986538701951
-0.23946476492721286 -0.3928054879491148 -2.0193489147727193
-0.17479703139704136 -0.6284768959663912 -2.0179836252466936
-0.24975873134225982 -0.7842391716217841 -2.019566244865495
-0.09571383317737298 -0.5863095671531924 -2.0963318109399607
-0.03018811718010278 -0.8008607638628622 -2.094948407365214
-0.15865479937931076 -1.3105091195174468 -2.097660644304336
-0.289421597289709 -0.8588597426512932 -2.100421442151931
-0.31428777918897716 -0.9658033219626221 -2.1009464263418205
-0.38129507440483007 -0.8708850104815173 -2.1023611095745767
0.07675859655355566 -0.8306460353277751 -2.0926905080987233
-0.2647187587912896 -1.2194804566364148 -2.09989990652939
-0.4019048003984665 -0.781981276571494 -2.1027962298655987
-0.4128493794864789 -1.1934733370958144 -2.1030272959379643
-0.5820574507426844 -0.1216057027431997 -2.1065996804146416
-0.4182276917454202 -0.03334406664513684 -2.1031408448903397
-0.4586969221325141 0.19947306017251454 -2.103995246511637
-0.40866136028656447 0.22660757433570056 -2.1029388769005823
-0.24014661101310245 0.4420780278263515 -2.0993811300985157
-0.6086052539285884 -1.0325161650907444 -2.1071601676259615
-0.6887943852395827 -1.1414251193423848 -2.108853150742942
-0.351215034721946 -0.3114045528065815 -2.101726048457083
0.015982836813500212 0.475323592483886 -2.0939736288094655
0.1413627565926418 -1.162571032311814 -2.0215135868615506
0.14239756534697523 -0.02083081354182159 -2.0705278831426233
-0.1322314769904012 0.5525264118175741 -2.018987373546273
-0.536103153923416 0.5525264118175741 -2.0938356746914986
-0.8140557662579251 -0.43803481988498394 -2.041314847184617
-0.8137172991590407 -1.4615335444000854 -2.0573465309103756
-0.6368341405091924 -1.5339366767864462 -2.0568990091151713
-0.3414336473381366 -1.5339366767864462 -2.100508774267055
-0.8324044272863844 0.2445016836128442 -2.031867134279679
-0.8872777897192745 1.0500532278573633 -2.0330256465352328
0.06616406976500899 -1.5339366894781352 -2.0128961332304574
-0.6225809802032098 -1.533936635686015 -2.0274372429048664
0.033469931627557736 0.5578645545962664 -2.013586387263338
-0.5283126711382162 0.991141698318347 -2.025447005993547
0.9816884443549125 -0.4978331149876616 -1.993567151713827
1.1040724897456724 -0.5057723189359005 -1.9909833221436444
1.7176394276772833 -0.848165751750548 -1.9780294081554908
1.2217132147679168 -0.6573378919495865 -1.9884996357856743
1.5761944847505787 -1.2770886852968721 -1.9810156603660622
1.303965231732422 -0.7725336214231553 -1.9867630924890256
1.3727281365671358 -1.4078140193933044 -1.9853113376767353
1.6496922413067574 -0.14467587435278173 -1.9794639411356216
1.3097154896639456 -0.1544253479950113 -1.9866416903370359
1.1208988301849931 -1.0730113700474373 -1.990628076524444
0.7856440331696496 0.23445159093741896 -1.997706133597227
1.2904281959853041 0.6915882836219638 -1.9870488927593497
1.436284569804266 1.0827463972226328 -1.9839695043434025
1.4889329649448824 1.0007360903471945 -1.9828579666445738
0.8955020860129062 0.39335942934676993 -1.9953867586774587
0.7448807299308653 0.21310971969465914 -1.9985667476417326
0.3941710382732293 0.25984522367458945 -2.005971095724535
1.1234408842027703 0.6429026739752878 -1.9905744074835232
0.34122069678696043 1.1738484132590155 -2.0070890082567336
0.7532275270430555 0.8527511427368735 -1.998390526132418
2.732238917992901 -1.3420581020754199 -1.9566087061628454
3.0709865927991125 -1.2428258583560106 -1.949456905810109
2.3329797808549984 -1.157180517669339 -1.9650380529899478
2.1164761961507073 -0.9937968634742328 -1.9696089785744337
3.4002673273930926 0.6651496956176697 -1.942504975955046
2.9677822636923032 0.6574486092812285 -1.9516358041825694
3.2882910073814644 1.1349445762547083 -1.9448690727283018
2.135875177070866 0.9870896701368712 -1.969199418158508
4.141652761939595 -1.4087432165579665 -1.9268524977045707
4.42479814286555 0.3650815895967512 -1.9208745991511993
4.2820621042161395 -1.0432558908488896 -1.9238881095823632
4.128522231381769 -0.8650442930908322 -1.9271297156460039
4.478054544059235 -1.4284061781700168 -1.9197502249424012
3.7484989405287132 -0.07368155190980369 -1.9351529462323858
3.872544880206409 0.4661814300898548 -1.9325340299677944
3.935850838092 0.590307302053872 -1.9311974847879774
3.9421284592968506 1.1191547816685326 -1.931064948694341
3.8233619849285123 0.1482354343453971 -1.933572402402375
3.7068531870729093 -1.3157915503488693 -2.0960678410205285
4.146582361677905 0.16590074190141824 -2.0867840717139274
4.2118874104306645 1.0612020705044216 -2.0854053207867875
4.054133385290785 0.5797390106106686 -2.088735898017425
4.027047848136585 0.9155604326625146 -2.089307740626483
4.392490790504775 -1.0226872357787256 -2.0815923372200125
3.9287306342588595 -0.8433384596895876 -2.091383459921953
4.091647358360334 -0.35738708131289776 -2.087943885360852
4.0619912918183525 -0.3940654168268116 -2.088569998196245
4.141366308294969 -0.3934146548702695 -2.086894195488047
1.834247914778557 0.7802713763761046 -2.135603164929666
3.1218782610483378 1.0752658500014194 -2.1084181069955727
3.5894224853859376 0.7866386861674591 -2.0985470932669905
3.527668802342301 0.8212381456345549 -2.0998508660897173
2.170180023586416 -1.2585182879475751 -2.1285108081315216
2.692580927888491 -0.9818442026978856 -2.1174816343555105
2.6062848110495587 -1.490867007983279 -2.1193035585921907
3.383105967683596 -1.443024827091756 -2.102902944698068
0.834431158427046 0.6889103230126229 -2.1567117668849036
0.9434921437933084 0.5422489849424394 -2.1544092200288745
0.5602702455634474 -0.703744485194174 -2.16249998111972
0.5676863054210912 -0.02033280321679176 -2.1623434097734044
0.3225935672453111 -0.4342983213235211 -2.167517923022363
0.6152555900415817 0.24437477278538255 -2.1613391046465193
0.5614728377995477 -0.1628583663883223 -2.162474591426394
1.2714897115835608 1.1782135808088152 -2.1474843809953343
0.8083282529719659 0.28460397291684725 -2.157262863711023
1.0069563320320145 1.1373378890893366 -2.1530693342153664
1.2182532321804942 -0.2443370150014197 -2.148608334605912
1.277084716164294 -1.4909698368550142 -2.1473662566251615
1.3893123893713857 -1.2011600667351636 -2.1449968531649355
1.2579501452695085 -1.2817878605633477 -2.1477702346921785
1.3198790970188368 -0.24899177675422862 -2.1464627615140413
0.7515846742735688 -0.6765351042656378 -2.1584608608526503
0.7850675651102206 -0.481594644144024 -2.1577539543015334
0.5933856218062741 -1.0782601838710275 -2.16180083370969
0.7653001559425086 -0.792947806171822 -2.1581712931480337
0.5035295971306475 -1.3634226881950857 -2.163697916396201
-0.2645324957698514 1.0750539994012693 -2.1799136048140526
-0.3710048249938458 0.6137985454678475 -2.1821614987431737
-0.622581762936075 -1.5339367520868534 -2.187472909469594
-0.5058185746678032 -1.5339367778453734 -2.185007750080614
-0.8929834069742544 0.9688967132408279 -2.1931817562515508
-0.8727793977831051 -1.0239046858565963 -2.1927551996998558
0.14277275605414474 -0.0019767033957441005 -2.088295167538005
0.1430163680184684 -1.0832813891370094 -2.099833934459714
-0.4950680388162243 0.5525263845920563 -2.043961457891385
-0.11229924405419389 0.5525263845920563 -2.142133584365908
-0.8139902076596388 -1.4431002305904073 -2.044416352826847
-0.8116138527345917 0.4133369572534389 -2.1569732450119012
3.1390949762608398 -0.9400781095027922 -1.9928024547855487
2.316864497190526 -0.9400781095027924 -2.070470115235585
3.642058010112647 0.6195503418853967 -2.026185734022377
3.6428051877590653 -0.5228475800806276 -2.0615760677240087
2.14983599527481 0.627156764268875 -2.0057671673360433
3.3656743403031033 0.6271567642688751 -2.064751292772562
1.7429109763922297 -0.7945777350491621 -2.031524114067132
1.7443761334033163 0.6040793583003911 -2.1009217945200236
3.6634487408161984 1.1960631906986237 -2.064636164978068
1.9227680369569244 1.1960631906986237 -2.05184129181911
-0.803903176596434 1.1960631906986237 -2.181346125415673
0.704375614677001 1.1960631906986237 -2.1143654597862533
-0.9880418599410596 -1.5339368283748624 -2.043601517104171
-0.914699477857877 -1.5339368283748627 -2.1561180974487324
1.7490359254141186 -1.5339368283748627 -1.9994541249012592
2.1736947419699475 -1.5339368283748627 -2.1215918479207962
4.560908039027611 -1.095076236152846 -2.038155932769904
4.560272555743185 0.23421270620599294 -2.008056042060576
-1.0002945277696935 0.46161129898209097 -2.0395834712169814
-0.9972189943929721 -0.8351024918377038 -2.185257198254345
4.683351375798226 -1.5339368283748627 -2.041647245521675
4.692851102906959 -1.5339368283748627 -1.9281757235817611
4.6240334140306825 1.1960631906986239 -2.007634448976334
4.580529362728585 1.1960631906986237 -1.9232594627802175
4.561137242418981 -0.611140243900302 -2.049012232533461
4.558501499682557 -1.4037332490492709 -1.9241693448468464
4.644402393305898 -1.0259961964192876 -2.076273860891571
4.6026348990370565 0.4750816083677871 -2.077155675889757
4.71843145550095 -0.8433257183162466 -1.919158864924427
4.7215272988998525 -0.9340852793523247 -2.0657945833515656
4.6362419610478005 -0.5183152585862933 -1.9164105080142753
4.646783340918585 0.5270455466009083 -1.9161879548317906
4.484446125567881 -1.1752092344639324 1.5834689796293355
4.474429638776405 0.18738932898801053 2.0579052641726787
4.47022782335151 -1.3279031265930525 2.2569265118441066
4.459956344655629 0.7037501438517375 2.7434406250945793
4.486433543044142 -1.0671704401915671 1.489333881874653
4.456971920760833 -0.5278363218855382 2.8847994681327127
4.4948325115425325 -1.0550809691688445 1.0915122213135455
4.468623928236691 0.356690580327533 2.3328958666601824
4.458112661749534 0.38598284799802673 2.830767657621457
4.499444811978293 -0.8534376196351692 0.8730481303108866
4.522481854466691 0.2955094470353059 -0.21811377831006062
4.555245612982663 0.16401773230800987 -1.769986823380306
4.520053413945594 0.06998733005424101 -0.10308938681936564
4.488914005950413 0.7907910182579239 1.3718454221284464
4.518319126564012 0.9724229784430647 -0.02094393215272483
4.530696843581958 0.08428059775727159 -0.6072211564307075
4.543140412744875 0.20902493861446736 -1.1966175029757615
4.542361935008757 0.8518468702217927 -1.1597444862771569
4.481572512411132 0.8361368062579349 1.7195792124569438
4.514288627277168 -0.06522117102526584 0.1699628344924975
4.689752833415006 0.3415631636056694 -0.5608190500481749
4.6851874811435845 0.14756519264078838 -0.3445786841019176
4.667622039310518 0.112215548447679 0.48741791641620513
4.665833045375417 -0.07819641213163142 0.57215457641584
4.714225902950461 -0.3450694693123779 -1.7199991521628064
4.668168682813363 0.8013618026995584 0.4615258528755057
4.668236414734006 0.44146135184681223 0.45831769402265604
4.716553231144025 -1.0171797704801533 -1.8302343038735835
4.688651459047904 -0.6517146768214672 -0.5086518607434436
4.667606041743798 0.3871335778713243 0.48817564976870204
4.668344525222153 -0.6931631347069243 0.4531969826010894
4.6599112152480915 -0.1846744156497806 0.8526452456289456
4.640814724358797 -0.24591687327575062 1.7571608082155556
4.643419501609404 -0.29591276769157504 1.6337841326836493
4.690173561617299 -0.8966807462352182 -0.5807470676509521
4.661361375870534 -0.23591489191022463 0.7839576077349559
4.696826815638069 -1.0397461397788201 -0.8958820229951403
4.667988359860526 -0.5004530068768529 0.4700669465287093
4.654263110369709 -0.24304853162544748 1.1201707711945952
4.659745051886591 -0.38740613205186525 0.8605156626223276
4.512860529000722 1.1960631906986237 1.442595221505345
4.707615010967569 1.1960631906986234 -1.4493050446636073
4.621974139545756 -1.5339368283748627 -0.2199972848119266
4.541118991551923 -1.5339368283748627 2.7043440880709158
4.524809008899249 -0.31792613760771926 2.9042600938873604
4.6071992993400634 -1.2779749868103225 2.9059995497248083
4.645056680482936 0.5700406922522687 -1.9162246784693675
4.703209974367434 -0.18034070938191127 -1.9149969235243005
-1.0194089892932328 -1.2885418004910578 -1.1342217609206644
-1.0240078835086095 -0.3706377837612759 -0.9163950977261807
-1.0208627064469054 -0.47547071908058247 -1.0653664357091621
-1.0168629550176846 -1.2176510401550436 -1.2548146957977346
-1.010178438421025 -0.34217154655181936 -1.5714268806246963
-1.005134349303679 0.894136674159121 -1.8103402040956673
-1.0331817392870073 -0.927683252222211 -0.4818753416173446
-1.0306804015691484 -0.7888111379056144 -0.6003512236635032
-1.0063777991210159 0.28114631711511967 -1.7514441930383469
-1.0336846298543192 -0.12204073030950369 -0.4580559256666099
-1.0213018172778852 0.6129671923831703 -1.0445679475062581
-1.062599178817179 0.008827289817797346 0.9114819291712484
-1.0641585306355856 0.06486252736609704 0.9853406411664176
-1.0632725477590717 -0.05711901654280055 0.9433760547679713
-1.0664873854540458 0.46607815203609204 1.095646869231731
-1.0303022173528895 0.3768233265560872 -0.6182639222476611
-1.0600389626801958 0.99382844931842 0.7902172703080279
-1.0560413505406399 1.158352367671434 0.6008703376924193
-1.0385103578226285 -0.1505535655356015 -0.2294852798564843
-1.0682756764951984 1.0193954863667811 1.1803492894379588
-1.2257769759583157 0.10595891037628014 1.0603097034064746
-1.2036699517505551 -0.1987455299548756 0.013210315854752408
-1.2108668810106227 0.1806656967529673 0.3540929307941403
-1.218143775586931 -0.6122226363846035 0.6987631036098995
-1.2181877488277015 0.15624880691018805 0.7008458965288693
-1.211346673844566 -0.5049662847675493 0.3768183224095971
-1.2272366584644745 0.08315540714974012 1.129447577588674
-1.2034294972212378 0.43421227622826286 0.0018211850510716499
-1.2085047436833682 -0.5640813652512209 0.2422102764198384
-1.217612375148494 -0.16687883949079652 0.6735933173734965
-1.2054304850433402 -0.7882782800596823 0.09659799007607378
-1.215537524468282 -1.1022522232897884 0.5753179974528484
-1.189967164447679 -0.30975425540636986 -0.635822320005679
-1.173649040542609 -0.30332811059465314 -1.4087303960276805
-1.1833873227798146 -0.7501707414686084 -0.947476575949791
-1.2031435307885008 -0.7804813527092117 -0.011723617440892287
-1.1735484360973072 -1.332970893880729 -1.4134955264256273
-1.2168800715589987 -1.4039363819521467 0.6389077516973553
-1.1868279773442716 -0.4879159853955895 -0.7845099435635444
-1.1916385597920367 -0.6244351392726608 -0.5566566654613916
-1.0535067849365276 1.1960631906986237 -2.027705870002791
-1.1864105603224946 1.1960631906986237 1.0251206857553175
-1.1900881272125683 -1.5339368283748627 1.4413254132473035
-1.1314841216484404 -1.5339368283748624 -0.13270035646836859
-1.0641634139705634 -0.7048444386345729 -2.0367602648752707
-1.1408612747639293 -0.32462408679620613 -2.038379558215586
-1.097882296624401 0.6325223727460405 1.476559927021738
-1.1909902159948715 0.0607590905684246 1.4745941742327076
-1.0856705288738675 -1.5339368283748627 -2.1216577880328096
-1.042749834718661 -1.5339368283748627 -2.120185359073586
-1.1141979533961273 1.1960631906986237 -2.102416167428136
-1.0235043594286437 1.1960631906986237 -2.11476409490648
-1.0952277578838454 -0.0344585031359852 -2.037416114786855
-1.0266122358683003 -0.8315476746195469 -2.035967460851886
-1.1571361207581472 -0.4847218111767184 -2.190871334073731
-1.1591886864240482 0.5406525149612493 -2.0936515440433725
-1.051868162856177 -1.213379929124267 -2.196536291560502
-1.0381644829968772 0.9144333818637804 -2.1962469708766603
-0.9992327597581641 -1.2681440293800437 -2.089875112360367
-0.999031431202453 0.23630851642675282 -2.0994111150196595
-0.05376951572700617 -1.5339367389678955 2.4870620388391433
0.10245198158031554 -1.5339367389678955 2.5077045324644573
3.1669472321866174 -1.5339367389678955 -1.7194743801155643
2.965508930361928 -1.5339367389678955 -1.4831041746734086
1.1063820446094261 -1.5339367389678955 -1.0829549655097874
1.1932589720030864 -1.5339367389678955 -0.5343302439663415
1.8304916050122206 -1.5339367389678955 -1.544547913938179
0.13578424481780482 -1.5339367389678955 -1.089298087601823
2.066734003068715 -1.5339367389678955 -1.3810277661832573
3.5964592574029153 -1.5339367389678955 0.8421283551449771
3.475026655621074 -1.5339367389678955 0.6455301611360414
2.951205548346591 -1.5339367389678955 2.0420515619352413
4.446511644273754 -1.5339367389678955 -1.4676502154067075
2.016534893757059 -1.5339367389678955 0.16911910613516043
3.598429363992654 -1.5339367389678955 1.8955652910007146
1.7980343953500584 -1.5339367389678955 1.593777405383576
3.6508806694089317 -1.5339367389678955 -0.6749697848216019
4.394270586822698 -1.5339367389678955 0.6174368575694528
2.539218102530849 -1.5339367389678955 1.253966677445689
2.67814576798141 -1.6939367353916168 2.2616954299090732
4.325191406259317 -1.6939367353916168 0.4318859103681847
2.4703871133159763 -1.6939367353916168 0.1498704782558881
2.2918073150884615 -1.6939367353916168 1.618344264048674
4.247855744483489 -1.6939367353916168 2.8658600465953734
-0.4483135761418242 -1.6939367353916168 1.0530859745914176
3.8849079725595956 -1.6939367353916168 1.0884566746596525
1.9621768009141365 -1.6939367353916168 0.6491049464906666
1.3808095671863498 -1.6939367353916168 0.4801770359428037
3.15965005769357 -1.6939367353916168 -1.368356850638901
-0.7030612221835075 -1.6939367353916168 0.11755339884832577
-0.8291155007832129 -1.6939367353916168 -0.43610004390148904
2.3315152424370527 -1.6939367353916168 -1.5486659342702778
-0.6051578358600578 -1.6939367353916168 0.04658151717035203
-0.5430978330557812 -1.6939367353916168 0.39177452970459764
-0.8899266086634361 -1.6939367353916168 0.3325869851451341
0.4996730226803967 -1.6939367353916168 2.757594912471757
0.46026898615787015 -1.6939367353916168 2.679607935885012
3.1003765981408318 -1.5895606134420486 -2.108872054594627
0.565331910987219 -1.6097107905569457 -2.1623931176098097
-1.177501618320984 -1.5852199143483165 -1.2262511810271175
-1.232474255939708 -1.6889352153382422 1.3775333840337205
-1.249721043496212 -1.587477776506781 2.1944392066690326
-1.2639297495763295 -1.5675073141889966 2.8674453304133896
-1.0309664755589005 -1.6817741646806592 2.9469997317852785
3.0772542471873408 -1.685196973460746 3.0337340983848224
4.634447578459756 -1.5425868579436732 2.0587364539373993
4.718988959492645 -1.691985892932562 -1.9455992787404979
4.29403290194924 0.11277321770987836 0.1296101268402223
4.297750063007338 -0.044683864319988054 -0.04645640744875186
4.298839395338734 -0.059585593299526785 -0.09805357132738665
4.294260468176053 -0.041477763187626915 0.11883125655453625
4.301158822472704 -0.2324745614569375 -0.20791523473962215
4.306698888710243 0.15486079460187258 -0.47032524251959473
4.3063953253086344 -0.1199736974861366 -0.45594670061008347
4.308223799357801 -0.08293589401960444 -0.5425539484108666
4.295725623267309 -0.0727556829292697 0.0494329240418038
4.289612316902881 0.004914745118249519 0.33899494403733127
4.29238798685464 -0.6983872056710244 0.20752294669904794
4.29033524701419 -0.5019133244320833 0.30475273681467646
4.282192250238271 -0.17404838759780297 0.6904527908758429
4.280988287216132 0.13695113924988805 0.7474795361276887
4.283409971944375 -0.31115612965202144 0.6327743537107442
4.285739832674907 -0.18051557490002623 0.5224184940131125
4.280896097690286 0.06076578248164449 0.7518461724018755
4.28491289252539 -0.6880421286145835 0.5615872262564507
4.291642180927192 -0.5586738239263438 0.2428486866510095
4.294145442312321 -0.4338475752784868 0.12427955563664245
4.183635305353497 -0.2669247685319247 0.6210548470735213
4.184647281452468 -0.2637799099617004 0.5731217277536376
4.193311530359863 -0.4455797310003072 0.16273211764543088
4.180459157277154 -0.6020576461168289 0.7714958356263683
4.193744626433448 -0.47122687019332044 0.14221814918982964
4.1811602482039065 0.08865511603766241 0.7382880601855059
4.190985089558808 -0.6829347930709171 0.2729259894385343
4.18283304460854 -0.011835974693556128 0.6590546180688899
4.191550823166534 -0.24103695389064214 0.24612952996682122
4.184956419271436 -0.6198952019627711 0.5584791487659095
4.198281533720924 -0.011909812130625086 -0.07267637112051129
4.197820377527494 0.1397123172621142 -0.05083331092642725
4.201134773316733 0.1476107854704204 -0.2078225214428725
4.196605576434657 -0.18829227099063325 0.006706788876390299
4.197352511487141 -0.039293951536893024 -0.028672433055125734
4.2018132735346425 0.11249752744162 -0.23996026850696855
4.190518040860256 -0.0003131911327682313 0.29504815321164235
4.204583570986169 -0.22794454604831932 -0.3711777927456014
4.205575444656354 -0.13596402039140548 -0.41815874321629243
4.19574247588431 -0.03296244338421486 0.04758828964203392
4.2615812922024014 -0.6986536383628845 0.17438860461717237
4.246579993262366 -0.6986536383628845 0.7182694325329432
4.275077985962598 0.17414897680282593 -0.0077945863144329025
4.217240185658887 0.17414897680282593 -0.6380096872993567
4.274472339676294 -0.2903247713926135 -0.6481288313678405
4.2617309995887185 -0.5820883396261693 -0.6483978296094205
4.232898712920867 -0.2518430315237259 0.7814879510181016
4.246449039417721 0.11486642586602552 0.7817740287756559
4.523484623231523 -0.7364326291231478 -0.26559210406504
4.518054793966431 -1.0013215277282768 -0.008405471834222848
4.52125265095586 -0.8868383355396485 -0.15987359897304382
4.50904791652899 -0.9247092305408313 0.418209871293297
4.527488433141082 -0.8671058733164942 -0.4552346022835119
4.504932184666026 -0.7669569634056224 0.6131536099124538
4.527091614921914 -1.0785982040547424 -0.4364391049643115
4.519460283797108 -1.0929899249397108 -0.07497721443218536
4.503156479068366 -0.7740144349239542 0.6972608111151889
4.515914523101642 -0.8958934948215302 0.09296954916606019
4.507240100539667 -0.9109749376243491 0.503837997572748
4.5010276708203065 -1.2126852557884475 0.7980928994284193
4.505216129473748 -1.1283834121222336 0.5997044192892719
4.511082301344503 -1.2513903879503443 0.321850197016413
4.505029743976808 -1.3598960232780075 0.608532663404262
4.5070361271191555 -1.083045874886436 0.5134993026570545
4.502446451729887 -1.4159606666165987 0.730891618100057
4.504257779547379 -1.3622421915673146 0.6450971522884986
4.514455443426471 -1.2907348099109885 0.16207960207806882
4.512208219438627 -1.2327155605667106 0.26852051229558804
3.9273922022907706 -1.3843944780619486 0.5852584667650548
3.9241980158266276 -0.9088515211259267 0.7365527376018202
3.9308098410374237 -1.4364677600402747 0.42338026461162237
3.929991108075814 -1.1291980737012157 0.4621599688734992
3.923905053553568 -1.5284324777508305 0.7504290450694059
3.9338102538912523 -1.5181426169860022 0.2812641796475601
3.9322843582575664 -1.046061404219432 0.35353900450923925
3.9247669082199783 -0.8106901398287518 0.7096068592685411
3.9340864172899943 -1.1448597973708199 0.26818355942907096
3.923227866121943 -1.3764432882069364 0.7825043731185479
3.9384982068784433 -1.0959350210052607 0.05921689565959473
3.9541665796434984 -1.0361597453702238 -0.6829235708718512
3.945529817381385 -0.8901896485604626 -0.27383892177404023
3.944115477391395 -1.128148838812705 -0.20684798686687117
3.938888384288279 -0.9062253300978653 0.04073594366110972
3.94029936141473 -0.8859010473918661 -0.026095707499579547
3.932976129781266 -0.8647562648457829 0.3207728935014058
3.9365580041917543 -0.7524302757802732 0.15111558537397315
3.9409281817109485 -1.0891067002260264 -0.055880101514048014
3.94845030309501 -1.1042968240400675 -0.412169216981356
4.465819406373901 -1.533936804488528 0.3052193466334907
4.383593537931749 -1.533936804488528 0.13397856086343035
4.34906503282745 -1.533936804488528 -0.1042250958532328
4.495151874954705 -1.533936804488528 -0.6760560045909403
4.493500520586004 -1.533936804488528 0.5245621721015541
4.360075361812161 -1.533936804488528 -0.26284172952727225
4.386202538463074 -1.533936804488528 -0.6262794044078034
4.049298059140234 -1.533936804488528 0.2764894507623494
4.486079278168909 -1.533936804488528 0.7855310679230955
3.9644725632988194 -1.533936804488528 0.17302814299603603
4.174453385320575 -1.533936804488528 0.133191334121046
4.06113493670892 -1.533936804488528 0.0746669369302427
3.961136192095333 -1.533936804488528 0.31863076646886984
4.220305832229697 -1.533936804488528 0.3002827764356454
4.486846501896285 -0.7324444592443822 0.0729975836262698
4.460311787111745 -0.7324444592443822 0.5938103749893302
4.41380696479049 -0.7324444592443822 0.2741172610553579
4.322659802063211 -0.7324444592443822 0.42666076311448015
4.364708807915122 -0.7324444592443822 0.21978805406189336
4.357888587029215 -0.7324444592443822 0.7906347984487174
4.451503808953974 -0.7324444592443822 -0.49239507472369004
4.050292449577775 -0.7324444592443822 -0.2475365118990263
4.408617008398048 -0.7324444592443822 -0.6833563776881612
4.199614981707948 -0.7324444592443822 -0.6954227732335794
4.350438909582296 -0.7324444592443822 -0.6278941402032496
4.317912165830778 -0.7324444592443822 -0.30952487660677624
4.4386234833327025 -0.7324444592443822 -0.7382890957593712
4.128718154077598 -0.7324444592443822 -0.31747302793663695
4.4363752788669535 -1.3594015523204497 -0.757510605079781
4.345796098680246 -0.9910957823107656 -0.7594229495186766
4.313010991451092 -1.0305950533436405 -0.7601151220174676
4.136626187283088 -1.1960485655202107 -0.7638390296379726
4.366433088393072 -1.5317919186890645 -0.7589872530105881
4.424876581035755 -1.4468193447661863 -0.7577533702583431
4.4306745748709675 -0.8448899233056614 0.8052171215934973
4.273893415790739 -1.304981597043706 0.8019070940896861
4.358941345248425 -1.417551536629197 0.8037026605167915
4.200360989667016 -1.0594479573958886 0.800354647645742
4.289915642479378 -0.7538303677934609 0.8022453618466209
4.308293581935652 -0.8526786517419194 0.8026333643682282
2.185297288787044 -1.1688426608465459 0.5894158459850845
2.1960114150876353 -1.2759933483358532 0.08193489414511917
2.1842527779641068 -1.1773060645403248 0.6388897211065767
2.1893774693465757 -1.1343849907503887 0.3961556718992253
2.199113357132015 -1.1658671958105824 -0.06499043201494073
2.203651316470132 -1.206260197758755 -0.2799335696734349
2.1996524569435536 -1.5246176119189436 -0.09052521458335677
2.201036669693025 -1.4824271891003307 -0.15608927309291337
2.2024578644465023 -1.3081326085211502 -0.22340500617372439
2.1983563570393634 -1.3318661031986974 -0.02913467329192801
3.016166816703378 -1.2804203157663407 0.07258652582944114
3.015625678084951 -1.5059654677638485 0.09821787769632549
3.020729027484554 -1.465525720107733 -0.14350529582455485
3.019359850227926 -1.5008184151591746 -0.07865340235817705
3.0151195539789835 -1.2969207258876272 0.12219074639689517
3.0173085447007093 -1.0620155739766615 0.018507901537316837
3.0057779133434166 -1.2658663107353323 0.5646631000430126
3.008814692661528 -1.1690854218048385 0.4208242450914914
3.018173182450471 -1.1586281320032992 -0.0224461787054846
3.0158756099167543 -1.1768464078811063 0.0863797081302542
2.465763502611961 -1.5339367843190708 0.4007773465097845
2.296229979071343 -1.5339367843190708 -0.1357882459557661
2.299068192689199 -1.5339367843190708 0.2340373636737502
2.5121255661146833 -1.5339367843190708 0.6265349159782271
2.5402458908799357 -1.5339367843190708 0.33646766616898116
2.564334862805442 -1.5339367843190708 0.2961167373024625
2.587893194820827 -1.5339367843190708 0.40463315167738556
2.2535710466554515 -1.5339367843190708 0.07605513349159063
2.2102428438749198 -1.5339367843190708 -0.36205386308097637
2.412481148179622 -1.5339367843190708 0.41419635427603047
2.7437736164977276 -1.5339367843190708 -0.17247266564366814
2.80086500782865 -1.5339367843190708 0.0029031855895108594
2.550574760073054 -1.5339367843190708 -0.3443253460134635
2.819656861191046 -1.5339367843190708 0.0792898902070277
2.9197210702217182 -1.5339367843190708 -0.09630634828024431
2.751294474502432 -1.5339367843190708 -0.01838702120184868
2.250085213446503 -1.5339367843190708 -0.3663989330440629
2.9186753817329354 -1.5339367843190708 0.12643915790696625
2.645600378224111 -1.5339367843190708 0.039278945560747916
2.508498821683686 -1.5339367843190708 -0.0640330295956828
2.2041038285016326 -1.0556697391947232 -0.0041413465895878965
2.215574271684676 -1.0556697391947232 0.11645303058039966
2.251709218475985 -1.0556697391947232 -0.055811107843289104
2.463008972970959 -1.0556697391947232 0.07174509747439864
2.1940107964907822 -1.0556697391947232 0.5693261755802341
2.312597385941759 -1.0556697391947232 0.1371271345465378
2.320950459093091 -1.0556697391947232 -0.229932859450587
2.324269617607076 -1.0556697391947232 0.2601847264085325
2.5704023620392977 -1.0556697391947232 -0.28268871473203944
2.223724065627996 -1.0556697391947232 -0.04868339331116939
2.809177566076004 -1.0556697391947232 0.3141396320089147
2.5633189262302656 -1.0556697391947232 0.4341389520556863
2.8076988108587297 -1.0556697391947232 0.2546463628469863
2.3196968108640847 -1.0556697391947232 0.47881437232493923
2.4736228197772507 -1.0556697391947232 0.35520068979805064
2.8709747211203682 -1.0556697391947232 0.3484785013268815
2.591457229060961 -1.0556697391947232 0.44242181488947513
2.57983689790503 -1.0556697391947232 0.2959143809113477
2.8370877170933704 -1.0556697391947232 0.458225748606287
2.6969008504433796 -1.0556697391947232 0.49874431528046614
2.575833744945921 -1.1659886551578271 0.6490912706582594
2.3535530655938772 -1.2476564203973242 0.6443984006201786
2.545415982562905 -1.2403798015196128 0.6484490798653897
2.27263817279258 -1.3760852218052686 0.6426900961594911
2.598745230723655 -1.3776442765876067 0.6495749862265566
2.993890934041679 -1.4535033120804344 0.6579174451266423
2.486074886123552 -1.3641676811984123 0.6471962491905922
2.5398171520192463 -1.4724341156278955 0.64833087533145
2.2900362874601057 -1.2614777361333331 -0.3975566215050098
2.503053033494357 -1.4496897423107011 -0.3930593349752599
2.341935123685907 -1.3958057842674056 -0.39646091451758614
2.524183970273346 -1.2737022385712893 -0.3926132110009416
2.9968119642239492 -1.1679812211764846 -0.38263491797774885
2.4904889225148823 -1.056319649260748 -0.3933245930271183
2.624130372729409 -1.08760130066727 -0.3905031064301472
2.730585023395612 -1.2637216032191385 -0.38825559737096105
3.430487838334571 -0.9204205186061409 2.04186511261638
3.2378743925253235 -0.7341233693950981 2.037798559711881
3.160212249891682 -0.6082088713061103 2.036158917108689
3.212848523393476 -0.7956512591595963 2.037270200851064
3.262339967267097 -1.0136362148364608 2.038315089352937
2.9138755240763707 -0.5953114629232571 2.0309581310283593
3.1261388200070526 -0.9752769679545856 2.0354395415496183
3.4117459532609664 -0.6152398425685144 2.041469424418904
3.3269545876722946 -1.016288076315673 2.0396792660394496
2.835184248614862 -0.847771424630338 2.029296760850165
2.8099785959287855 -0.7693885758654412 2.028764606307632
2.7492862596237346 -1.4832454139039077 2.0274832388753365
3.016762605895831 -1.3851707117591467 2.0331303353604637
2.877553943705958 -1.4878377948609776 2.0301912913743014
3.0554389216267266 -1.2714158821717414 2.0339468893835226
2.7709679857032112 -1.3552316632979058 2.027940994489399
2.7129489295443285 -0.6919470561713574 2.0267160667054225
2.981537164829486 -1.2697875087411985 2.032386637956169
2.8076794526528492 -0.8771576977502654 1.0538895133640818
2.6639327080447877 -1.3400236477981033 1.0508546590768213
3.017004214917824 -0.9749798245270673 1.0583088840699835
3.073514729859273 -1.0749741095807 1.059501962765525
2.740506471613483 -1.070534675554057 1.05247132326836
2.679763127555613 -1.435323726749225 1.0511888789344783
2.695578715635408 -1.0215496614746982 1.0515227856634297
3.0422363254537252 -1.3086109735280065 1.0588415972040812
2.8240747098811316 -1.1040506917496158 1.0542356583625347
3.0960001124555108 -0.8339390908930592 1.0599766855841806
3.408962885787969 -0.8545791177414224 1.0665841146218997
3.1381706481472955 -0.9522274260602608 1.060867011353917
3.240221297620161 -0.6099266934849235 1.0630215565014602
3.3268895150046944 -0.8797383931220439 1.064851339929362
2.9026466509305804 -0.6572930402852238 1.0558945090920067
2.854339788874503 -0.6551587107505515 1.0548746300831657
3.1477566863074777 -0.8092863551408072 1.0610693966607119
3.07359804665806 -0.8362085547860031 1.0595037217921013
3.315041064261349 -1.5339367951698648 1.7722628149239037
3.0043053337953034 -1.5339367951698648 1.96423247728547
2.799713752670627 -1.5339367951698648 1.98608722964213
3.237413658367643 -1.5339367951698648 1.6079131745744244
3.2535895315938177 -1.5339367951698648 1.9285706059100403
3.319469683743722 -1.5339367951698648 1.558940796082279
3.3757425489618966 -1.5339367951698648 1.713630559151794
3.4111649515026916 -1.5339367951698648 1.6229490087054845
2.8902262401016685 -1.5339367951698648 1.8075007890961994
3.062867781602149 -1.5339367951698648 1.105140756453969
2.837244484294532 -1.5339367951698648 1.2451193891555556
2.9957948079106704 -1.5339367951698648 1.3132840919029287
2.8363689525622693 -1.5339367951698648 1.465814298603896
3.092954185316115 -1.5339367951698648 1.2578151460191256
2.802797932641884 -1.5339367951698648 1.2197625330825235
2.8466725566700983 -1.5339367951698648 1.4213293327975167
3.072938522873989 -1.5339367951698648 1.1170577138709799
2.6620119868353638 -1.5339367951698648 1.7424829084560742
3.289817807692575 -0.5910241041831625 1.891651750153977
3.010423117453688 -0.5910241041831625 1.734664161753593
3.0938803069172356 -0.5910241041831625 1.8591209685335404
3.0371099920539018 -0.5910241041831625 1.769701235780376
3.283174102931204 -0.5910241041831625 1.852708269783682
2.976293664242872 -0.5910241041831625 1.6858334658530205
2.93273939171595 -0.5910241041831625 1.578751105309532
3.077536726998915 -0.5910241041831625 1.8467946412212535
2.9767098338809093 -0.5910241041831625 1.6861227631541889
3.4107810328898847 -0.5910241041831625 1.3131610263836908
3.156574727688261 -0.5910241041831625 1.4522737062059499
3.1316892064709783 -0.5910241041831625 1.3465818564114707
3.4790542515906546 -0.5910241041831625 1.5039382123972316
3.545115293597544 -0.5910241041831625 1.0899923128003435
3.465863313920945 -0.5910241041831625 1.5116929057489024
3.30025962458354 -0.5910241041831625 1.4561557714842996
3.2630515348030222 -0.5910241041831625 1.1513513779697213
3.37243507630749 -0.5910241041831625 1.2953751636368742
3.5515555419026095 -0.9791054115679022 1.8280481229514578
3.5544416267336425 -1.187837855411373 1.6913479505769664
3.554222797361552 -0.9906523549090674 1.7017128617409267
3.547386291707811 -1.2558402969693585 2.0255257626150964
3.55542151886261 -0.8532715469981085 1.644935100373113
3.55175662075491 -0.6568942573216443 1.8185239698583997
3.5554060032220587 -1.1353101852116783 1.6456700027969984
3.55489818784928 -0.8936639209002113 1.6697228124188328
3.5549614389239954 -0.7440344859196838 1.6667269085134773
3.5606036202791005 -1.1393790411356688 1.3994834943498473
3.5665411405572875 -1.433386461155883 1.11825127387668
3.5518522581370386 -1.418209812370725 1.8139940799251937
3.558713889306076 -1.3712337296770247 1.4889911023647762
3.551396231842597 -1.4379735827948303 1.8355938861357306
3.5653594029994524 -1.2708129581222851 1.17422458627571
3.55751778665016 -1.1712033586886355 1.5456448214388658
3.5666624693565465 -1.0642960020422407 1.1125045031669836
3.56500999052976 -1.0799062126289756 1.1907746004413295
3.5632357698853205 -1.198873620904779 1.274811031150969
2.6446754150385 -1.230562750684616 1.7326710588607008
2.645514962815132 -1.3258964001052258 1.6929056560741325
2.6460791747197137 -1.3230546298244485 1.6661816097873625
2.6387723936340888 -0.7331788549295548 2.012269231040766
2.640591942511576 -0.839516877742016 1.926085816568062
2.646091510360298 -0.9934970034488192 1.665597328904095
2.6465984092359696 -1.494618203228851 1.641587929410484
2.641568291907072 -1.4034275969815306 1.8798407688733414
2.639370811862336 -0.9816586154940594 1.9839249931743699
2.643484207118941 -0.697356534153773 1.7890929374509146
2.656548155096253 -0.9033255828775467 1.170315581640819
2.6559439305831534 -0.658344729640876 1.1989348357270262
2.6502543760570174 -0.9318655348878506 1.4684220926828657
2.650521840167928 -0.9490027279162478 1.4557535842342102
2.6508962486892687 -1.0214265799541509 1.4380196254623094
2.648502605925455 -0.6193246566317949 1.5513951489043
2.653383593054107 -0.9530461281484437 1.3202059008718032
2.6533813584826427 -0.6545453208474241 1.3203117419410186
2.6528692316555955 -1.0151580756535188 1.3445687647361104
2.011524269297373 -0.7556735220977583 -1.9718248755568446
2.7101624162275217 -0.6960245755571242 -1.9570748191872136
1.7210051246963913 -0.7176998971684365 -1.9779584853205696
2.1528901244255905 -0.6937688775679092 -1.9688402771047784
1.3500324981598664 -0.8475058933283943 -1.9857906759575217
1.7451845374903832 -0.8875663893794508 -1.9774479954435666
3.073646822012637 -0.7119113970996491 -1.9494007242378173
1.4204112894031344 -0.7845372430778226 -1.9843047978350257
3.228073293127156 -0.9522551356391032 -1.946140382437257
2.538452381598095 -1.0019805670321333 -1.9607000616695265
2.4162824971800627 -1.4661101846525895 -1.9632793835828164
2.56915181875889 -1.0524001066366675 -1.9600519172321986
2.4891864087293096 -1.0742183857851018 -1.961740193646448
3.141551366321593 -0.8515531538019151 -1.947967083860875
3.334756610520469 -1.2900010657894292 -1.943888021966869
3.1000452530987355 -1.0478775526981505 -1.9488433851513378
3.18668116737203 -0.9467369827948665 -0.8062754410565064
3.1626860145345113 -0.9516585801400138 -0.8067820407297515
3.1933896340576657 -1.0022413165791753 -0.8061338079919482
2.582658597222828 -0.9738196623085442 -0.8190279181397838
2.337307443482959 -1.1941631444801797 -0.8242079149148224
3.4414216802973385 -1.0829097667990968 -0.8008972106495534
3.407837827514054 -0.9851546710592337 -0.8016062525532048
2.8757902933524213 -1.1003837809399328 -0.8128391506631786
2.384895487399818 -0.7430061462204234 -0.8232032083533808
1.953248603426529 -0.7598450108018199 -0.8323163893303396
1.957529026607151 -0.5939592743243929 -0.8322260185375658
1.3985477125646026 -0.7796852463431496 -0.8440275583302711
1.6161698044753074 -0.9485544746534952 -0.8394329936946804
1.893623883029008 -0.7875791930200788 -0.8335752212317342
1.7500440592925381 -0.7624649532285405 -0.8366065622814041
1.5109643409669404 -0.7481638852351016 -0.841654152851191
2.7864136485708455 -1.5339368552375063 -1.6823117428408705
1.0190136465687367 -1.5339368552375063 -1.80842144838747
2.278519712075744 -1.5339368552375063 -1.5106424561834801
1.2645932909149225 -1.5339368552375063 -1.6709761492140498
1.3924263504567653 -1.5339368552375063 -1.4187086986762405
2.2694172561664945 -1.5339368552375063 -1.9613727269631664
2.8719703786725117 -1.5339368552375063 -1.8887639243500536
1.9330963085871302 -1.5339368552375063 -1.5438452011940258
1.2424738813410712 -1.5339368552375063 -1.7958347304678535
2.052167150215696 -1.5339368552375063 -1.690963125585182
2.3208299057380715 -1.5339368552375063 -1.3228015033801805
2.732990620865922 -1.5339368552375063 -1.4599482635331238
2.327858305582853 -1.5339368552375063 -1.446280529637439
2.780681623064944 -1.5339368552375063 -1.4440118048972528
2.2531895240700672 -1.5339368552375063 -0.9427222050314124
2.5381039408104336 -1.5339368552375063 -1.1639195157471538
3.450309221495651 -1.5339368552375063 -1.6209759471322478
3.4194376666529918 -1.5339368552375063 -1.911584323661656
3.3507970545381722 -1.5339368552375063 -1.3411914803801457
2.6808976336089487 -1.5339368552375063 -0.992143726759928
2.419971372335529 -0.5832563668083921 -1.8827049536102458
2.3106531974932754 -0.5832563668083921 -1.6747300117940345
3.3501372747151494 -0.5832563668083921 -1.7115787569755698
2.4689242326321503 -0.5832563668083921 -1.8900803122438483
1.9189832343198323 -0.5832563668083921 -1.5771051432097334
2.3570251461032634 -0.5832563668083921 -1.8765815490795827
3.371075625512625 -0.5832563668083921 -1.4214704406968262
2.8252074445183624 -0.5832563668083921 -1.7357144684937584
2.5522952060312813 -0.5832563668083921 -1.6969219149594106
3.010045338270083 -0.5832563668083921 -1.9143474981885997
1.6581701805586464 -0.5832563668083921 -1.488457362196832
2.031683755208913 -0.5832563668083921 -1.3444375919853986
2.076000848152745 -0.5832563668083921 -1.1626554398223095
1.503325382848157 -0.5832563668083921 -1.1840588966033856
1.1187013634549499 -0.5832563668083921 -1.6507899354821207
1.28362812220147 -0.5832563668083921 -1.6750812413161795
1.2292877057405276 -0.5832563668083921 -1.1179160305230542
1.2704808659366917 -0.5832563668083921 -1.1888387430409022
1.2800002960937622 -0.5832563668083921 -1.033718882448963
1.425047406950105 -0.5832563668083921 -1.7236982280943063
0.9287426783400397 -0.6031113103494905 -1.503071205818741
0.9383941310282504 -0.6908689161082636 -1.9602132583115774
0.9386331807384445 -1.325001228489179 -1.9715358725020198
0.9165025184173117 -1.2682554573133558 -0.9233147680390453
0.9222339123147199 -1.3719352396869673 -1.1947828314018236
0.9249290895558937 -1.2803529064118702 -1.3224401795404308
3.4714602842657927 -1.385251614822898 -1.6956461652644652
3.468859410116686 -1.1102411526141565 -1.5724554928126029
3.468439567925145 -1.3531096788084516 -1.5525696240875022
3.468539683329662 -0.8100195659160809 -1.557311600553174
3.466036987034148 -0.8123085005680337 -1.438771132267515
3.4702892801340215 -0.7874290875070413 -1.640181433729366
