# Exported By Aspose.3D 23.9.1
2.296982670723318 0.3761346626851026 -2.052043887674823
1.5300869611452448 0.35059412943430307 -2.0527527306459605
1.697420181435616 0.7595466108554861 -2.052598064274042
2.666258481348337 0.6082652271615889 -2.0517025654330845
2.4696226552477896 0.2263522129341393 -2.0518843162519564
2.0765155945538387 0.28616232806438624 -2.0522476657574984
2.299457465898233 0.48274693073185465 -2.0520416002175548
1.9002508482907123 0.3790336838014077 -2.0524105875536276
1.63174423003993 0.1277681326743871 -2.0526587686644016
2.4440259141602807 0.5900158987684836 -2.051907975362025
2.8442815226151636 -0.49273892124803553 -2.0515380184419794
2.4784412642251166 -0.20721353061240938 -2.051876165197112
2.4007236612172713 -0.30656628655224116 -2.0519479997059475
2.698880305351016 -0.6445865530809249 -2.051672413027273
2.8636216875812246 0.5547677465592882 -2.0515201422955545
2.6690098006074336 0.19906113566814138 -2.0517000223841486
3.0236601177401545 -0.020582879469363047 -2.051372218510204
2.2948879723291453 -0.34868151386529966 -2.0520458238080086
2.987879403771767 -0.2377714524922258 -2.051405290683228
2.642045775752865 -0.14691270089616495 -2.131724973687621
2.0555491168282196 -0.6990149692960876 -2.132267073518253
1.4847282390731396 -0.7364162849152621 -2.132794684198456
2.40547826743251 -0.07680509144264003 -2.131943633426329
2.166124480774082 -0.6605874930045323 -2.132164868526707
2.749605287314529 -0.16660875889020133 -2.1316255562534154
2.026413124397891 -0.2717313271025794 -2.1322940039641836
2.697576993035225 -0.10885666262240726 -2.1316736460917594
2.8892049155503288 -0.21301239385668796 -2.1314965240864434
1.4704941167319212 0.14334197659229592 -2.1328078408212483
2.1965026069243487 0.24048461634039242 -2.132136789974527
1.7579042001488743 0.1620407252658761 -2.132542187206396
2.387280642338817 0.5414983678515459 -2.131960453521262
2.0686937605858873 0.2334914391822946 -2.132254923902315
2.673368143994263 0.7445705107472909 -2.1316960223709165
1.3813393965099174 -0.1350073316513294 -2.1328902466764172
1.7327158211965585 -0.22178852617480616 -2.132565468866668
2.362120600306636 0.5514998968669542 -2.1319837089896723
2.552958921933751 0.8050340824344833 -2.1318073168137617
3.17929879215872 -0.11420047323819588 -2.066887656964497
3.1793358478258273 0.3517761065999424 -2.1069785614499974
2.7910227050146004 0.8212668187916278 -2.108829611708312
1.495737615412283 0.8212668187916279 -2.111509603110964
1.32643843830525 0.5086861364403947 -2.0887909074576085
1.3264552823376698 -0.45812564272005507 -2.107014638066151
2.0876847133365946 -0.7401581518352032 -2.090366239315262
3.1054718113853714 -0.7401581518352032 -2.109531661996904
-1.0131682327833895 0.16488539760426785 -2.055103699815862
-0.4615079640323313 0.6031255513032945 -2.054593794241257
-1.0374564502541426 -0.30225406260654275 -2.0551261496789155
-0.6327790181537484 0.45290409285214106 -2.054752101935706
-0.6561007600961124 -0.075294398828263 -2.054773658474937
-0.5998265980582633 0.31465960379976987 -2.054721643656117
-1.1507022214109632 0.3621310504071701 -2.055230823974463
-0.6874066402032305 0.40917050764501217 -2.0548025948397415
-1.0070426183631884 -0.1832916953108017 -2.0550980378439605
-0.3902562231151092 0.5316486175710966 -2.0545279354836987
-0.49600768595418954 -0.9542996367440616 -2.054625682708719
-0.4769322375663813 -0.43995916354590103 -2.054608051064713
-0.5906676267039821 -0.8275797402119269 -2.054713177919475
-0.3038343104288141 0.2594681998342282 -2.054448054771705
-0.4422950305550747 -0.09266227663031493 -2.05457603551829
-0.6378142184780236 -0.9205318681779279 -2.0547567560260216
-0.28127849847951575 0.361934922206555 -2.0544272061898794
-0.3554950880387048 -0.6075200093147501 -2.0544958053892204
-0.26469468839463406 -0.21370840235882915 -2.054411877594203
-0.5459294098408637 -0.8340762355744743 -2.13467184954375
-0.6993638884206312 -0.7140438746526383 -2.134813670697812
-0.911139777454753 -0.8290633571571403 -2.135009417450845
-0.8554178800707966 -1.1688315227069812 -2.1349579130962395
-0.8000942092373392 -0.6991274731112913 -2.134906776826757
-0.6266853657108679 -0.650973473077405 -2.1347464931503555
-0.7721379750649657 -1.0840275678445646 -2.1348809365760504
-0.6381080285317895 -0.6188340494145368 -2.1347570512415923
-0.4262629859997722 -0.933202610144604 -2.1345612405692305
-0.44326764035986566 -0.5148954515563775 -2.1345769581558387
-0.8742040499938668 -0.5106173398427526 -2.1349752773570208
-1.1491947938920921 -0.9652719712405731 -2.1352294542865935
-0.7816041240208481 -0.13360315628671926 -2.134889686240284
-0.5659976641314446 0.16091258573164147 -2.134690398849029
-1.0916766983803718 -0.35044949161987504 -2.135176289686561
-0.8341426477914872 0.3304637659480478 -2.134938248168104
-0.9262612701596364 -0.11376507516577039 -2.135023394410694
-0.9012585322239113 0.20541432650285496 -2.1350002841086186
-1.0615812004817502 -0.699566955058718 -2.1351484720911706
-0.8843436548134678 -0.3935681025202559 -2.1349846495038194
-0.25467996019892947 -1.069643080486542 -2.096518706112111
-0.25464726428323625 -0.3066187222287179 -2.131892396959777
-0.49219317531699536 0.6973441829481786 -2.055576335779452
-0.7344170641677039 0.6973441829481786 -2.1116993476923898
-1.2058514030232876 -0.271567866838566 -2.0687428587623797
-1.2058160242328837 -0.5777866110032766 -2.1070191500905633
-0.8290533482675144 -1.335325478533811 -2.0861653226329926
-0.3528193625462058 -1.335325478533811 -2.121367822823923
-1.218939478311997 -0.3490874232013521 -2.055293658467523
-1.3099843481238427 0.8056571625823775 -2.055377810029389
-0.7217830607971667 -1.3353254310786724 -2.054834143405202
-0.9146974126258018 -1.3353254310786724 -2.0550124515739796
-0.30924746642009016 0.8006254891523794 -2.0544528422438746
-0.9661292442814777 1.1275205353138265 -2.055059989331707
0.8248551647624794 -0.3158514468627619 -2.053404606270473
0.6738128021444835 -0.30540132280858134 -2.053544212716707
0.7679515497930809 -1.2451177662500905 -2.0534572015247186
1.1024341458526665 0.6625656615211195 -2.0531480437112846
1.0029407943527031 -0.433564679668534 -2.0532400040923724
1.052150884809744 0.4174414346318592 -2.053194519860476
0.964065347891565 -0.4466777461000893 -2.0532759361503206
1.2753113547540627 -0.072356980318105 -2.0529882556071315
0.8461724562685268 -0.3442822733213132 -2.053384902981549
1.033234297934571 -0.46040298562308807 -2.05321200421005
0.06554610675071149 0.7533092724168874 -2.054106425530611
0.44616826402571885 0.07128583581822433 -2.053754621534607
-0.1495687922681772 0.156080471470188 -2.054305253369791
-0.20141253342595622 0.5447703920930971 -2.0543531718499914
0.5770901480048117 0.19072032645472686 -2.0536336121790875
0.6583861160222759 0.999876954150348 -2.053558471397446
0.19588214073041899 1.3271486007558508 -2.053985957668452
-0.1605987040693737 0.4037441729777016 -2.0543154481705224
-0.14814850964399673 0.6307651576734614 -2.0543039406214576
-0.133353824515005 0.8260096557820087 -2.054290266090828
2.6199256051975484 -0.9967226264149507 -2.051745446544787
3.0979708343096437 -1.0760782000303566 -2.0513035956996424
1.6473301960354891 -0.8185896648259562 -2.0526444035416374
2.017129347689149 -0.7929735110766005 -2.0523026031057348
2.8422662282864977 0.8400798426438323 -2.051539940064983
2.4438498625742433 0.9386474350337117 -2.0519081910111043
1.4807892160235543 1.2383373778670388 -2.052798335153728
1.6929277543240053 1.1097787499653418 -2.0526022583251615
3.8885738318907253 -1.283494666749062 -2.050572851867509
3.9044090693051814 -0.4719450639170822 -2.0505582155682456
3.9580090700640143 0.37824622934631036 -2.050508673800662
3.992124740231522 -0.11586511936016342 -2.0504771411406164
3.9726140305538307 -0.6033544046380566 -2.0504951746299924
3.32340068069636 1.1124981166020973 -2.051095233891845
3.6989679112665823 0.2020244577865915 -2.0507481020973413
3.4275057433086156 0.05115590352568472 -2.0509990109675322
3.4278776033853116 1.2650182454943601 -2.0509986672622107
3.305188425161642 0.01680595280275199 -2.051112067237332
3.533961049828189 -0.08068676186734791 -2.2109006630243884
3.6407951855123555 0.7844594559382225 -2.210801917654144
3.2778020484110577 0.220525406809996 -2.2111374273813458
3.742470896461617 1.2082555579138576 -2.210707940147252
3.7289625510988205 0.4300457623297528 -2.2107204257311497
4.05009105780028 -1.061628608403771 -2.2104236109248405
3.6067199494844204 -0.861655841750078 -2.2108334129414526
3.8357260243946594 -0.5206187916625225 -2.2106217456732105
3.9986211721590457 -0.47488436026337116 -2.210471183855361
3.7493662798533554 -0.31623684169306854 -2.210701566836122
1.9381436189337713 1.2497119751602217 -2.212375655844306
2.2823522033182435 1.1653025047101337 -2.212057508429262
1.3533259194030833 0.8247161848262773 -2.2129161950633103
2.360898622298638 0.9701236999607239 -2.2119849090192147
1.5889203870170476 -0.9580176224144266 -2.212698438231347
1.5786594847377096 -1.0853158499475108 -2.2127079222468082
2.602241920331199 -1.3025499131944516 -2.211761838619781
1.6361052177024968 -1.2762549129925356 -2.2126548259201124
0.7136839121741237 0.8409204303054726 -2.213507407660513
-0.10143030491744742 -0.2056448671436999 -2.214260806886732
0.15392321540012754 0.1050752210357424 -2.214024787025238
0.6390339398578903 0.6515213120771441 -2.213576405636749
0.06769456378732563 -0.14179855881469539 -2.2141044870207
0.2330171943534658 0.6022249942667206 -2.2139516815127926
0.26634986622568824 0.05200003480940296 -2.213920872567654
-0.023130862686254083 0.24456046886803018 -2.214188435754008
0.48197368468213364 0.6245249666788971 -2.213721574341009
0.4815198077558952 0.3956032375936893 -2.2137219938534134
-0.10871022951376519 -1.0935122132008859 -2.214267535624181
1.2586329437594423 -0.4131852583283726 -2.2130037185208606
0.5722928714179409 -0.4573055444854587 -2.2136380935183553
1.206149169030824 -0.08359541677648502 -2.2130522285755747
-0.18734977948820308 -1.2538072359407435 -2.2143402211139676
1.0257785652520988 -0.2430440550353063 -2.2132189427249176
0.6330652635140948 -1.145349822102589 -2.213581922404883
1.1510847682485337 -1.0899246848176904 -2.213103123868617
0.7653725653302027 -1.1059368411408887 -2.213459632526089
0.9159128989448273 -0.2301696596112029 -2.2133204900985843
-0.7501983416542086 1.1063642660266073 -2.214860454551592
-0.48390474267170913 0.7333523351844137 -2.21461432292094
-1.1834470908581465 -1.3353254310786724 -2.2152609006063493
-0.6487617082003134 -1.3353254310786724 -2.2147666980208482
-1.3641471561170344 -0.13047205027286857 -2.215427919272555
-1.2782495554928697 -0.4308754174241059 -2.2153485252631175
-0.2546734857351469 0.3728646431315438 -2.1036368958419
-0.2546373722372868 -0.9041811594567766 -2.1427090903053347
-1.1695033155680794 0.6973441131412983 -2.100133714712154
-0.4390002142267895 0.6973441131412983 -2.1751828841347245
-1.2058037671114725 -0.8991061025108347 -2.1202036731802614
-1.2057618157084726 0.047447968215913044 -2.165592059051049
2.7546440440296474 -0.7401581518352032 -2.1579339641901236
2.5870174331221754 -0.7401581518352032 -2.1812738373413323
3.179284359251411 0.6478286340457096 -2.0512848113758237
3.179425470259312 0.613102788869083 -2.203956722664763
2.0776768425805345 0.8212668187916279 -2.0721515938139285
2.191400745181982 0.8212668187916279 -2.188408890829614
1.3264103711706265 -0.04139056626254447 -2.0584276251200113
1.3264980921619807 0.20940047356428268 -2.1533353974435148
3.3704497569837555 1.3646744973957539 -2.1414934181000005
2.8546234327271316 1.3646744973957539 -2.0820022477354736
0.09060726286621956 1.3646744973957539 -2.1866638082511347
0.8826684031008523 1.3646744973957539 -2.1844498856863517
-1.3494750497846613 -1.335325550287962 -2.077578888387483
-1.2638581041292736 -1.335325550287962 -2.1512104817156943
0.007157186207272792 -1.335325550287962 -2.120126270615272
0.9120410599412527 -1.335325550287962 -2.2028354774696575
4.118105326653266 -0.07725400378853137 -2.080765406314005
4.118203911370288 1.2449481674039797 -2.18742694459738
-1.4157748350372632 0.49447782802246004 -2.144138975721864
-1.415735417406045 -0.444995860254656 -2.186786003661742
4.152168527728323 -1.335325550287962 -2.193025255756587
4.22794869249012 -1.335325550287962 -2.1038350425302212
4.15412630370599 1.3646744973957539 -2.1833535444444
4.173965673682636 1.3646744973957539 -2.067040295716149
4.118153883238861 -0.12067340693075185 -2.133300122340889
4.118083424713229 0.11026086238534394 -2.0570690902284574
4.276086398760109 0.976760682801129 -2.2102147413390987
4.137761806962457 -0.8422906739775343 -2.210342592918966
4.278134652438736 0.10872576448944336 -2.112345900752861
4.278168851258295 -0.026744062564217352 -2.149346551685084
4.133920793157576 0.19554583439432932 -2.050346083429764
4.253894794518416 0.1368231673706689 -2.0502352119447367
4.1149493371716215 0.10984851983996291 1.334364523217188
4.115541268628605 -0.24093681561618308 0.6938432414471151
4.115231455085201 -1.2502047493346837 1.0290884215934097
4.115989353773762 -0.7908862545865052 0.20897617088976067
4.115029287738877 -0.707274724023434 1.2478510608680942
4.115469461137373 -0.3553579768934073 0.7715451878164372
4.115200124393876 0.9477719619984826 1.0629909525866208
4.116393808546923 -0.7529460683948654 -0.22867904521097204
4.1153142063345305 0.8089359995156422 0.9395443778309749
4.114935266182727 0.28925368703849497 1.3495905561227897
4.117648208691087 0.8504607764928394 -1.5860490222801846
4.115331195517783 1.125995290167253 0.9211606050063694
4.117757399547512 0.4391825073512122 -1.7042030188117685
4.1167344589447765 1.0569031722236968 -0.5972923819317203
4.115498630595182 1.2416043840625237 0.7399812993215542
4.115526449360545 0.9352764408734082 0.7098789774437858
4.1158841287040575 1.099662664967668 0.32283884151853326
4.116339642694744 1.30234619824859 -0.170066885548446
4.117274630018107 1.3055459860704692 -1.1818044300461543
4.116374984546269 1.016566459205734 -0.20830984049175
4.278034095025179 -1.09539759922604 -2.003560455573834
4.2770356831832395 -0.2653129014130904 -0.9231920696924916
4.276599984329631 0.9593998040932186 -0.4517280430950425
4.276853764521167 0.7096942273723599 -0.7263402666101848
4.2763883491034935 0.14788860654671954 -0.22272033499946897
4.277616105518363 0.16681239881899002 -1.551259481341713
4.277535921637903 -0.10561414883778997 -1.4644935538280308
4.275107176480022 1.2207961958779907 1.163619791502095
4.276494379918766 0.3082669485567343 -0.33745489236183185
4.277820646918142 -0.06313587928499254 -1.7725910527860356
4.276288127540973 -0.34245986365796277 -0.1142718940034636
4.2763249078573855 -0.5387314288606108 -0.15407139297305972
4.276069768645158 -0.754783337494292 0.12201140904350538
4.27608846695657 -0.8705036621803315 0.10177821100805917
4.275713973742228 -0.007243550686714784 0.5070124164805099
4.277010371547254 -0.6153705199365898 -0.8958026796985544
4.275764020018827 -0.2641687270972084 0.45285799563127094
4.276640557338386 -1.0432972946821386 -0.4956315648053782
4.275051486913722 0.013422017917617615 1.2238807422700664
4.274974150290109 -1.189590805152962 1.3075656904178221
4.164363041234289 1.3646744973957539 0.8535105230831039
4.245878600381511 1.3646744973957539 -0.4355098012559051
4.191249976943474 -1.335325550287962 -0.2907892860159873
4.25054183809853 -1.335325550287962 -1.345675263188694
4.212256158820516 -0.4673008095525828 1.5213800559514559
4.25233664440245 0.2200049605112704 1.521417096363493
4.225177430892969 0.741351011272779 -2.050261549625565
4.209547480487799 0.016718342232721672 -2.050275994056433
-1.4163653990044671 -0.5449356234834088 -1.5051697657619731
-1.4158848719578505 1.2510973349475274 -2.0250663117625183
-1.415992119203975 0.10708575803454201 -1.9090323169628896
-1.4163603418713755 -1.1027877087995557 -1.5106412289095281
-1.4161875148018312 -1.2373234303884535 -1.697627990932828
-1.4163343715007648 -1.02320583805906 -1.5387393475772833
-1.416077180624241 -0.1276299594461232 -1.8170018289694334
-1.4160027335616967 0.6473035740041124 -1.8975483267143345
-1.4162512744490143 -0.5729725821359547 -1.628644526676182
-1.4165993203626965 0.9287482348648678 -1.252083270349316
-1.4164178096765356 0.9230318876489312 -1.4484650962250687
-1.4167140984090374 1.2883856992611604 -1.1279014781496293
-1.4167853662475185 0.5377295681556704 -1.050794677755913
-1.4163030676182977 1.1966169424393234 -1.5726079518225204
-1.416509918357999 0.6664468119949294 -1.348809966120252
-1.4164276640965077 0.5769057280781549 -1.4378033052969386
-1.4164781538662827 0.26078463286630144 -1.3831769172522004
-1.4168618574822145 0.9953598693358183 -0.9680365291817041
-1.5768539145999145 -0.6329763097167498 -0.9766916419952805
-1.5764391723776492 -0.007186367631020207 -1.4254136241489768
-1.5765876911644299 -0.1931475314444795 -1.2647267183709254
-1.576366937297597 0.5495195729572098 -1.503566912051558
-1.5765568671480064 0.7257593381404615 -1.298076141229364
-1.5768745169172547 -0.7629641236579247 -0.9544013802915141
-1.5760833092167899 1.227332565350328 -1.8104325933874927
-1.5763699673847051 0.7670411610396242 -1.5002885704208264
-1.5764628895378179 1.0778858278910857 -1.3997533210724895
-1.5762641662000523 -0.5171636705297473 -1.614758028177818
-1.575960112627307 -0.838602946984867 -1.9437226585401683
-1.5765897795543091 -0.7915762046277773 -1.2624672270633897
-1.5764269893137426 -0.9830810805263733 -1.4385948444140364
-1.576605484266632 -0.9099734391284993 -1.245475830324986
-1.576458541635851 -0.845104621754818 -1.4044574459098067
-1.5759903949029055 -0.028967031370282947 -1.910959361240828
-1.5765731483144265 -1.1218563977584781 -1.2804610616072725
-1.5760486523268074 -0.39289298910412035 -1.8479289164850283
-1.5759698231735748 -0.7487355182722398 -1.9332165288645862
-1.4174740526556193 1.3646744973957539 -2.0114669735477486
-1.563244170859482 1.3646744973957539 -1.3771080725041174
-1.5482024793262341 -1.335325550287962 -1.102073618215037
-1.5153016798958077 -1.335325550287962 -1.9834115197938524
-1.4741975750808671 -0.9702004401651991 -2.05552936833299
-1.499962515526975 0.103447638539024 -2.0555531824752453
-1.5206359330588919 0.4542494703833309 -0.9356437463109609
-1.5712851960678864 0.8489539990595101 -0.935690560653768
-1.522561261844631 -1.335325550287962 -2.101529602470271
-1.4672586661100109 -1.335325550287962 -2.2150967718017416
-1.5596084344033665 1.3646744973957536 -2.1839522234595288
-1.4539061426327113 1.3646744973957536 -2.0953826779086366
-1.554763123298488 0.047665319345537416 -2.0556038338428237
-1.4871201806523964 0.6906385736286562 -2.0555413125006092
-1.5757727120514884 -1.2006519245711176 -2.1466128615406657
-1.5757483287696594 0.9702815531225414 -2.1729912035607106
-1.4365398724715197 -1.1040671946021399 -2.215494648510578
-1.5124698178158935 0.7002825597766345 -2.215564829403241
-1.415836941968518 0.8562904476500179 -2.077051503748934
-1.4157476073370518 0.15311716337290127 -2.1737023079262743
0.708932064500002 -1.3353255987167358 0.5292287599979593
-0.13554078536256498 -1.3353255987167358 0.7629352367758837
-0.8178535445735156 -1.3353255987167358 0.3425730084701283
0.5041923322466999 -1.3353255987167358 0.3535422600236495
1.351722593394147 -1.3353255987167358 1.448586323326117
1.0717290069322793 -1.3353255987167358 0.5515637347388531
1.3389033758884108 -1.3353255987167358 -1.9967578991081134
2.256505861771122 -1.3353255987167358 -2.19272419496005
-0.2707168572064733 -1.3353255987167358 -2.2019609212349502
2.5996091862684807 -1.3353255987167358 0.023527546571321
2.3201728309924103 -1.3353255987167358 -0.3130938315859286
2.8094733698633756 -1.3353255987167358 -1.2910647518052099
3.6000492333363914 -1.3353255987167358 0.8037197896750647
2.9701044415269715 -1.3353255987167358 -1.7284120934514386
2.780644967769425 -1.3353255987167358 1.00050441838161
2.8569448749063415 -1.3353255987167358 -0.4364315726151555
3.903987580553869 -1.3353255987167358 -0.8298604451463816
3.025031830272514 -1.3353255987167358 -1.1013725542055572
2.067372223678478 -1.3353255987167358 0.02974912219796949
-0.4247503742037828 -1.4953255951404572 -0.6733019227813984
3.102179350281407 -1.4953255951404572 -0.6046242291110598
1.4606072038452176 -1.4953255951404572 -0.8337271754854239
0.4440506303893903 -1.4953255951404572 -1.2176300971878184
3.1409013252946396 -1.4953255951404572 0.1540104051881006
2.017252253148923 -1.4953255951404572 -0.37841068745716183
1.7445858527004652 -1.4953255951404572 -1.3430369753467635
3.902648101841276 -1.4953255951404572 -0.2697168514892157
3.036685080918263 -1.4953255951404572 0.8318810539803061
3.073125767058011 -1.4953255951404572 -0.7419834379389962
3.136935289290164 -1.4953255951404572 -2.0784864443724484
-0.8146139968567301 -1.4953255951404572 -1.5852922470832485
1.08236539370739 -1.4953255951404572 -2.091446036457329
1.9369175018572142 -1.4953255951404572 1.2022321980684143
3.0607745377803353 -1.4953255951404572 1.1781230648698844
2.4722488597086993 -1.4953255951404572 1.4560706424947638
-0.6416965056084694 -1.4953255951404572 0.4884760476505875
0.8278645769835089 -1.4953255951404572 1.5539385845195888
-1.4527349538679077 -1.4953255951404572 0.6733489025748511
1.5787692829839814 -1.4032749064825736 -2.2127077919685023
0.17011048867795409 -1.4023958665701404 -2.2140097812433286
-1.5758914331013836 -1.3746274745437053 -2.018139057889091
-1.5765809671307793 -1.3819988384394675 -1.27212830142093
-1.5769199382374013 -1.441736922438183 -0.9053869553876306
-1.5786054928323865 -1.409594664067007 0.918620867910215
-0.9805899827255469 -1.384619425364265 1.6765811189722961
3.3834587313248514 -1.3805010031375946 1.6806143482373197
4.275606181040939 -1.423405689628019 0.6238663692372142
4.277532499529794 -1.456028086075808 -1.4608091748840162
1.8025441956645563 -0.9940700465748006 -0.06640921584100273
1.8024696479428501 -0.9464836445556737 0.014248301141959765
1.8021120360504495 -0.8905355054076547 0.4011694118680941
1.802297349239927 -0.9761801479822282 0.20066829143965273
1.802299833852031 -0.8957840339510478 0.19798004505992736
1.8024698786086601 -1.0875246808801553 0.013998730382838664
1.8029961934906238 -1.2515048690789161 -0.5554519591728672
1.802536485779044 -1.1079020502823613 -0.05806744217706375
1.8029769745234874 -0.9776459656223052 -0.5346578405503125
1.8025888773115095 -1.297096797587868 -0.11475288906777767
1.8027279350473338 -1.251991375480733 -0.2652075432430564
1.8028151850418028 -1.2311147820453325 -0.3596083880925734
2.581451844335747 -1.097905666095798 -0.09490942237393343
2.5818559855574463 -0.9257884641276702 -0.5321733213459449
2.5814214951711745 -1.2725711109603526 -0.06207289563732125
2.581391400212451 -1.2128244187111488 -0.029511408998314184
2.5814530577535075 -1.227951385020377 -0.09622228964028384
2.581900731439191 -0.8897005151278512 -0.5805864939308333
2.580968628088211 -1.001813615037387 0.4279103472997375
2.58141827049249 -0.9542793028006384 -0.05858392817039526
2.5812489062987662 -1.0960876130195913 0.12466104590676796
2.5813858093513886 -0.9422273867779056 -0.023462331162200922
2.5813120986886076 -1.0553222594483502 0.05628952307352442
2.581191950033352 -1.0424553283811178 0.1862853429314808
2.047988523515827 -1.335325539112091 0.001710575820264397
2.154291802258671 -1.335325539112091 0.28745541141069564
2.076148542220595 -1.335325539112091 -0.18325966193657928
1.94089987497349 -1.335325539112091 -0.09964939077770668
2.1316867351276394 -1.335325539112091 -0.056426324505563875
2.023032170368096 -1.335325539112091 0.5618302065344329
2.0913558626678963 -1.335325539112091 0.12480967101065452
2.0644232907737883 -1.335325539112091 0.08718423277079718
2.071255036931338 -1.335325539112091 0.15184400880049115
1.8962377612971213 -1.335325539112091 0.021861531988022397
1.9538056374147308 -1.335325539112091 -0.4978229001447307
1.9742694727083465 -1.335325539112091 -0.40871874895790816
2.4867415234927166 -1.335325539112091 -0.34520578873566893
2.0006682864348693 -1.335325539112091 -0.5016493499089745
2.2492555285319518 -1.335325539112091 -0.05646064385076525
2.514749559439471 -1.335325539112091 -0.3188881613309721
2.216770286450586 -1.335325539112091 -0.38080975537279343
2.203970133566426 -1.335325539112091 -0.33114966585031347
2.396905200173 -1.335325539112091 -0.09761666375670541
2.181170410884694 -1.335325539112091 -0.1315258589625388
1.8986666513718957 -0.8657533526420593 -0.308626675241572
1.8788459660508254 -0.8657533526420593 -0.0820465882255462
2.038732586026385 -0.8657533526420593 -0.09692860255307045
2.163072251495577 -0.8657533526420593 -0.3369183569548051
1.834515707421747 -0.8657533526420593 -0.5400495129955193
2.161015053030545 -0.8657533526420593 -0.18918056004994926
1.9978445013576076 -0.8657533526420593 0.027134540497279654
1.9457675642154626 -0.8657533526420593 -0.357579446008108
2.1803100405440152 -0.8657533526420593 -0.5793813650506741
1.8531275221051455 -0.8657533526420593 -0.10054560813561117
2.335765448451239 -0.8657533526420593 0.08019629224349685
2.546649942410344 -0.8657533526420593 0.35172461418037587
2.332174392735972 -0.8657533526420593 0.22465974924997203
2.4905536127817833 -0.8657533526420593 0.20835237651092728
2.5618548423730005 -0.8657533526420593 0.024218426741416756
2.421046292109209 -0.8657533526420593 0.26724980413377314
2.37751524374415 -0.8657533526420593 0.1890571249102022
2.2737144962545432 -0.8657533526420593 0.44500844502134307
2.168890012662942 -0.8657533526420593 0.17419079159028117
2.5570573923861084 -0.8657533526420593 0.3853436460478098
1.8914014373912629 -1.0459874930174446 0.571240436159147
2.0857848999133233 -0.8749891532596482 0.5714200971277379
2.140987345835481 -1.101081380284909 0.5714711185715082
2.0397472675561006 -1.167363123869332 0.5713775463597167
2.093469591481514 -1.2869934587636702 0.5714271997850964
2.1240898813437594 -1.1811229312424776 0.5714555009114567
2.416902739837922 -1.26901471348495 0.571726136289026
2.036945985244002 -1.3336178771618483 0.5713749572449486
1.9366890055087111 -1.0013546665951847 -0.5932263693587659
2.1602964886540215 -1.1195395854560517 -0.5930196977804084
2.1006730335789654 -1.2645304595743605 -0.5930748053885894
2.0562640039010613 -1.0291152841295752 -0.5931158509033805
2.189280885073449 -0.9665683412449471 -0.5929929086458433
2.525108361682073 -1.0302284209873438 -0.5926825165531
1.8875927726810264 -0.8825523416795832 -0.5932717470705812
2.45765706193038 -0.882142318510418 -0.5927448591294121
3.9688198202754346 -0.854680483095424 -2.0504980772401664
3.5178230749708144 -1.0194612476023217 -2.050914983813363
3.962422640296656 -0.9081262100160558 -2.050503990866841
4.032006061223084 -0.9066241439410851 -2.0504396671530407
3.7480756750798814 -1.083494580091783 -2.0507021356642787
3.5762380816196004 -1.0865480504955796 -2.0508609843100434
3.5886249823308716 -0.8520378710048089 -2.050849533716703
3.531487194310538 -1.0837875749938704 -2.050902352544448
3.9620700902540626 -1.2300241604978785 -2.050504316768151
3.902920452679449 -1.1653223570671112 -2.050558995372739
4.06891889025041 -1.007498132991458 -2.050405544509769
4.032952010017472 -1.2527554238311218 -2.0504387927071064
4.09351822439343 -1.2015077090325665 -2.050382804602647
3.818553636421518 -1.2740108006695205 -2.0506369850270407
4.10698845989309 -1.0686149758880086 -2.0503703525621817
4.011871016608971 -1.2781700033497705 -2.0504582802196287
3.8165989682753407 -1.2839283956116172 -1.4427905270134231
3.89454310557533 -1.3324741810509075 -1.442718474557345
3.8753546949699706 -1.073996849409409 -1.4427362125445784
3.845791071701603 -1.2403845465298984 -1.442763541497606
3.88641900360185 -1.1950909202957691 -1.4427259845705531
4.0590439745647275 -0.9286660345900994 -1.4425664080639784
4.027459578709587 -1.0278145178237774 -1.4425956050424036
3.8779705203567296 -1.0737086106798996 -1.4427337944455358
4.021564772110718 -0.9192899172088025 -1.4426010542693533
3.7053118500109843 -1.040841243202644 -1.4428934021042072
3.64881844159951 -0.966264029661186 -1.4429456252600374
3.599442065721107 -1.0622824274476603 -1.4429912693492213
3.6607518410816073 -1.0810166411366093 -1.4429345938884446
3.8335846312985797 -1.0598950043592097 -1.4427748252713637
4.059543453006469 -0.892249927115641 -1.442565946340368
3.6251873837478263 -1.0882057660326157 -1.4429674700814303
3.553613420742205 -1.3353256583213806 -1.7846474367768388
3.791814127569965 -1.3353256583213806 -1.8132480694081237
3.51062568631846 -1.3353256583213806 -2.010415161981252
3.8593721683284166 -1.3353256583213806 -2.0163613612369478
3.9701291177753193 -1.3353256583213806 -1.924775695532405
3.6408093808071658 -1.3353256583213806 -1.8107703113218672
3.8608985021041935 -1.3353256583213806 -1.8857168571629508
3.5587600893587803 -1.3353256583213806 -1.7753943228933307
3.571234551040755 -1.3353256583213806 -1.894459870342142
3.807559410764273 -1.3353256583213806 -1.7615664747457906
3.879770250344881 -1.3353256583213806 -1.737282015507512
3.9138197841352724 -1.3353256583213806 -1.7060918959715303
3.833091959938423 -1.3353256583213806 -1.581805612258657
4.10681461507216 -1.3353256583213806 -1.6055797743126297
4.039862749530075 -1.3353256583213806 -1.9287728618667692
3.971079639158797 -1.3353256583213806 -1.7895763967655534
3.9451402020108066 -1.3353256583213806 -1.7848064455336525
4.054868938080829 -1.3353256583213806 -1.6899930481771261
3.968526151409877 -1.3353256583213806 -1.6970444080143
3.9036459836167285 -0.8481793999671936 -1.7489134371967803
3.9119083004498614 -0.8481793999671936 -1.7838955534496408
3.7982009545311226 -0.8481793999671936 -2.0072941888159535
3.7820849894079953 -0.8481793999671936 -1.8883521074583935
4.0250584647898 -0.8481793999671936 -1.8214741154006326
3.705790651998698 -0.8481793999671936 -1.868275491336322
3.8003994665401275 -0.8481793999671936 -1.915259837711622
4.081503273775583 -0.8481793999671936 -2.036511011511188
3.7343234095293756 -0.8481793999671936 -1.8555408591390152
3.6298085088512155 -0.8481793999671936 -1.9959911050329495
3.591241667983328 -0.8481793999671936 -1.8095236799324839
3.7890562159016885 -0.8481793999671936 -1.7129310644719862
3.537119715204204 -0.8481793999671936 -1.7264868608012933
3.6724512143309043 -0.8481793999671936 -1.4614071406898423
3.5156899851313974 -0.8481793999671936 -1.892711039887459
3.804990112393071 -0.8481793999671936 -1.5815768620853605
3.6014955219974936 -0.8481793999671936 -1.9301349189832888
3.7594383436502845 -0.8481793999671936 -1.665733511836267
3.5488887456635263 -0.8481793999671936 -1.6418615331625275
3.4968200217325514 -1.1088811219987478 -1.8555103250249954
3.496969461020874 -1.007338370987157 -2.0171710066283475
3.4968127905512345 -1.0833702735418607 -1.8476877656859738
3.4968116901847877 -1.1069239665851465 -1.8464974094429323
3.4968687899291098 -1.1723714628662247 -1.9082668657224462
3.4968035415668455 -0.9695057058365997 -1.837682383987114
3.49696205172938 -1.2509614071332593 -2.009155770965519
3.4966059932736338 -1.2689468045594903 -1.6239782631459583
3.496577366830727 -1.2752413840790586 -1.593010702177369
3.4964560192664793 -1.2442221674883212 -1.4617391325159579
3.496750088385199 -1.2673296965734497 -1.7798577123374366
3.49659365373007 -1.1212909995884186 -1.6106295712081966
3.4969392449061 -1.2862222501079894 -1.9844837677862537
3.496489641196491 -1.1484867958936473 -1.4981107198245265
4.117876614587979 -1.1731093359080682 -1.8330659634059998
4.117938151123829 -1.1191910748209566 -1.8996350593953042
4.117860745068022 -1.1213765400849915 -1.8158986077402801
4.117951810370902 -1.3236463931773133 -1.9144113823879831
4.118070485141503 -1.1670082922531488 -2.0427915728982513
4.118065566454396 -1.1764528240417238 -2.037470627387211
4.118030571490929 -1.3042816987310824 -1.9996137176668567
4.117757165302887 -0.8553252454165592 -1.7038479173231744
4.117722703043943 -0.9311817570804829 -1.6665672775865648
4.1178558320763345 -1.0005100193210832 -1.8105838234306693
4.118022701409956 -0.8922666355088724 -1.9911000083960344
4.117719197677667 -1.022838219725035 -1.6627752366326947
4.117579352731041 -0.9119018863154505 -1.511493537930138
4.1180550770647875 -0.8671754922084728 -2.0261233980694207
4.1165469917721556 -0.8060994676061536 -0.3940190600131479
4.116811868290969 -0.8674573289280862 -0.6806274982620374
4.116546114899288 -0.8804228368311322 -0.3930702436958292
4.1159437595597 -0.6157581851621952 0.25870562501330124
4.116658415241541 -0.8208766565671326 -0.5145843207160135
4.1166514726557635 -0.6116332895390744 -0.5070721271997777
4.1156885537878525 -0.5263003027895474 0.5348498752818489
4.116685660081955 -0.8013059390141453 -0.5440644769652832
4.115982779946727 -0.5889468015461384 0.21648379185248534
4.115968185859673 -0.6305158499244287 0.23227525769057272
4.11579961175736 -0.8666752482577951 0.41468010206642136
4.115949268116528 -0.9942529284232454 0.2527451160319551
4.115839188184301 -1.1871156009497918 0.37185660843375673
4.115890867352441 -1.2393778986411637 0.315937398467413
4.116165504016438 -1.2833795453187564 0.01876803930127774
4.115401635862969 -1.3288360577165141 0.8453081172007226
4.11606886906351 -1.1114093867863446 0.12333145270913409
4.1155093053667855 -1.004661472058158 0.7288048179493507
4.115484631958625 -0.7155498972601905 0.7555025675684102
4.115799026909945 -0.8731083670833076 0.4153129335643245
3.5125792206358675 -0.9001120996081771 0.7905297846800146
3.512642293750675 -1.1930507780715576 0.7222818062955418
3.5125954929861165 -0.6535960165021799 0.7729223617476897
3.513177987130772 -0.873361840688979 0.14263720911579258
3.5132194765815195 -1.1792426165032135 0.09774373673179865
3.513235939621393 -1.1727656634113068 0.0799299789551014
3.513178854114622 -1.0899588188549787 0.14169909316526805
3.513154868076463 -1.295691456879388 0.16765307718549882
3.5132252080693362 -0.9656894695356355 0.09154200628266923
3.513240119991604 -0.5981624724179212 0.07540662828991776
3.5141634040576792 -0.8636193799821762 -0.9236287162676369
3.51334042913509 -0.6577651172781209 -0.03313242638126161
3.5139663803123242 -0.7578735158178036 -0.7104400644114941
3.5137125540840564 -0.8918008462490589 -0.4357885430294741
3.513815145990313 -0.5361644891620009 -0.5467976508240042
3.513787254393937 -0.7342839471575986 -0.5166176752131144
3.513704716929411 -0.8515847182851742 -0.4273083853195923
3.514117439085296 -0.5902605479007038 -0.8738925259552788
3.513181661920263 -0.7711005074758235 0.13866091978074674
3.9584590212845323 -1.3353254795074463 -0.20682841239340416
3.9775114926880932 -1.3353254795074463 -0.33425026186425305
4.016254967816462 -1.3353254795074463 0.17160872795057144
4.037419592923656 -1.3353254795074463 0.012156633944170603
4.050748258057342 -1.3353254795074463 0.15638795658345675
3.9045522452938024 -1.3353254795074463 -0.06227783615648443
3.936618172361088 -1.3353254795074463 -0.8775276645383503
3.870643737574338 -1.3353254795074463 0.2812940644070944
3.5264449492778063 -1.3353254795074463 0.016870688324241295
3.829600618830035 -1.3353254795074463 0.7734753387216945
3.9956573887069426 -1.3353254795074463 0.6579559249186263
3.651279322874235 -1.3353254795074463 0.6867606909077889
3.870318087922064 -1.3353254795074463 0.8474423039776648
3.803412066954092 -1.3353254795074463 0.734082032324475
3.861729833373288 -0.5261565446853638 0.11890715477199615
4.013400139793247 -0.5261565446853638 0.41724894688856573
4.0203421833232635 -0.5261565446853638 0.8475136671631883
3.9092753107369607 -0.5261565446853638 0.5613676529891635
4.06737557918934 -0.5261565446853638 -0.3408433814386206
3.8991901375819427 -0.5261565446853638 -0.22942087760374721
4.0116857334914275 -0.5261565446853638 -0.3694469474063558
3.6935941078238037 -0.5261565446853638 -0.06401366802301446
3.790247242239777 -0.5261565446853638 -0.20704665367909808
3.756960972918231 -0.5261565446853638 -0.3875755650445814
3.880095539158952 -0.5261565446853638 -0.334902956276894
3.5644545736780473 -0.5261565446853638 -0.44906897403971907
3.5288122857184168 -0.5261565446853638 -0.09723032973097097
3.7682529289332902 -0.5261565446853638 -0.395967636879998
4.047157682433475 -1.0948163400680948 -0.9788880358472887
3.9611695157586486 -0.6892666780435963 -0.9789675049217884
4.085847854745184 -0.7264906618007183 -0.9788522789250894
3.919804776529335 -1.1161084527233345 -0.9790057336417461
3.5143465271766354 -0.9412106986358721 -0.9793804525486652
3.7144667925234205 -0.9618175661246646 -0.9791955041669197
4.043846296924008 -1.2637392088971735 0.8765284137402519
3.9012789252218627 -1.1477133976777254 0.8763966549469068
4.018894912660702 -0.6845474095329165 0.8765053540159715
3.5386482398357524 -0.6106694685529467 0.8760615166823379
3.7121822078491173 -0.8989894042618963 0.8762218943757529
3.6288960777095545 -0.697620161546805 0.8761449224860522
1.980275171983403 -0.6571047617473853 -2.052336733078954
0.8236794060926198 -0.8313159823176516 -2.053405750603911
1.9347202176309728 -0.7048324720132952 -2.0523788385802773
0.7618102686583593 -0.638575740975529 -2.0534629349669546
1.1403026207621778 -0.5260533229268559 -2.0531131023206717
0.8621893681927155 -0.8187776996328228 -2.053370156643096
2.197556721290144 -0.4352666418935707 -2.0521359042406435
0.553331318522523 -0.6457062508913775 -2.053655627745065
2.459712549213583 -0.8022434558596031 -2.051893599035502
2.800229875743897 -1.0137677111431218 -2.051578865919276
2.02119134098465 -1.004680912215816 -2.0522989151109083
2.203242052598555 -1.0768214426592921 -2.052130649406601
1.9209883315871301 -1.3020556691946097 -2.0523915306782987
2.5156590895975377 -0.8648586397076443 -2.051841888806315
2.576604221559644 -0.5585391306908142 -2.0517855584824023
1.9512854606914896 -1.2285748520078668 -2.052363527669016
2.1418555896310445 -1.1350035708132395 -0.9571320015595485
2.725616144421287 -0.830891064019463 -0.9565924437625606
2.4506641517592147 -0.9958732647785244 -0.9568465761978902
2.877978992189245 -1.1653645819971978 -0.9564516179362694
2.0035461506814203 -1.2839341608632808 -0.9572598381109734
2.3704939837801886 -1.3327694706296809 -0.956920675824636
2.087711618363707 -1.0913316806562015 -0.9571820457114143
2.637443933571035 -0.7133351246509143 -0.9566739395118905
1.1811543832202698 -0.5685611960278842 -0.9580199577981828
2.0960972058773244 -0.4801307008151253 -0.9571742950864566
0.978690773740916 -0.7627901405991611 -0.9582070907214413
2.047098236801513 -0.7146601837539851 -0.957219583819298
1.345953935571981 -0.6835297998262674 -0.9578676369832839
1.2088643281887632 -0.8415970441239693 -0.9579943460696424
1.744521988191603 -0.7847373222789856 -0.9574992487825797
0.9281599080307504 -0.6787509199655601 -0.9582537953546316
0.8836839180155911 -1.335325539112091 -1.5579512430110503
1.9577924131512645 -1.335325539112091 -2.004595041393345
2.535370519377272 -1.335325539112091 -1.9809223270044316
0.7840585336306753 -1.335325539112091 -1.7344315252131632
1.6313481144986512 -1.335325539112091 -1.6753378146017477
0.7807352453054057 -1.335325539112091 -1.7096810135747957
1.4302570237094128 -1.335325539112091 -1.9830884427550413
1.7012671210302903 -1.335325539112091 -1.6549656624900853
1.7675283898263305 -1.335325539112091 -1.590314963029645
0.6458503513035578 -1.335325539112091 -1.9032129374870395
1.8858468829825952 -1.335325539112091 -0.9959055488829662
2.3714869327043813 -1.335325539112091 -1.2008366879698724
2.8609991875657235 -1.335325539112091 -1.1517266834521864
1.8954134021848472 -1.335325539112091 -1.5097274717385905
2.145405772990774 -1.335325539112091 -1.29698148780082
2.889095721838707 -1.335325539112091 -1.8925248541138955
2.488398185451079 -1.335325539112091 -1.1108067197372455
2.790249813451392 -1.335325539112091 -1.9815622996377753
2.2748666707336413 -1.335325539112091 -1.653712029110321
2.764230862537121 -1.335325539112091 -1.206126629109729
1.8906706579595391 -0.4153112769126892 -1.6308289802705276
1.6680402837899724 -0.4153112769126892 -2.0355621193603564
2.648912522522296 -0.4153112769126892 -1.6625217241142005
1.4913114180451883 -0.4153112769126892 -1.5954634627050168
2.491429569996443 -0.4153112769126892 -1.6225423838922408
2.4788413622934216 -0.4153112769126892 -1.655113724313209
2.3200792398019714 -0.4153112769126892 -1.721873867656858
2.6048243583463533 -0.4153112769126892 -1.8148567026992608
2.481536746514948 -0.4153112769126892 -1.913988004742444
2.796214041990246 -0.41531127691268926 -1.8726639831875778
0.7893926311185849 -0.4153112769126892 -1.6452112410667898
0.703198862629499 -0.4153112769126892 -1.19478040834311
0.7821692738098007 -0.41531127691268915 -1.6907529012293239
1.041898853536099 -0.4153112769126892 -1.7592767406961276
1.0573414570085835 -0.4153112769126892 -1.5760336673334396
1.3051217603727725 -0.4153112769126892 -1.6667474640205713
1.6379043017325556 -0.4153112769126892 -0.9764113647562245
0.6418553272429084 -0.4153112769126892 -1.4750599031456564
0.5018508222035241 -0.4153112769126892 -1.983308442790561
1.1642941666077125 -0.4153112769126892 -1.109419596895306
0.46620956093742905 -0.552009889733468 -1.8642696829929681
0.4663465775551343 -0.5059448916707138 -2.0125129555133503
0.4660176020418283 -0.8359551057366829 -1.6565823575434702
0.4659732103938936 -1.2174151706292697 -1.608553415706959
0.4655306016099703 -0.9964668169459828 -1.1296788406803502
0.4658304759512557 -0.9998987126254733 -1.4541238199948938
2.9016619506927284 -0.7701251157343018 -1.7613621749680033
2.9014362223240355 -0.8862676301841008 -1.5171384257891174
2.9018643072553996 -1.1564275870169225 -1.980299115382762
2.9017640191551193 -0.5191723821143893 -1.871793764503733
2.9016432035204476 -0.5837863563780537 -1.7410789260017763
2.9009471051728197 -0.6545800346709815 -0.9879447531049649
3.862410759699502 0.2750825857823441 -0.4427103926360503
3.8626202739524196 0.24491150081271673 -0.66941525549585
3.862251023882583 0.3046429377130702 -0.26986827824913184
3.8619953852823317 0.32198775328868945 0.006745427046213004
3.8626698816583387 0.31874293163330925 -0.7230932655145816
3.862117706009043 0.024827170349161806 -0.125611695143921
3.862133378971533 0.01893122023526525 -0.1425706216245879
3.862614724219528 0.3531788884092513 -0.6634101679349874
3.8620458560777915 0.058257432446369634 -0.047866488868137394
3.862115023120023 0.11416081620472576 -0.12270867552179084
3.8620651467483347 -0.32357485902170835 -0.06873995575175948
3.8621364185017244 -0.4057668054701429 -0.14585954476774543
3.861864308683311 -0.2667981073052858 0.14857683942667888
3.86154705880459 -0.3882685755593716 0.49185701844219376
3.861949789398948 0.02534683705243425 0.056082445151376975
3.862055544296256 -0.029161266260593163 -0.05834962406167059
3.8620190623554773 -0.29546401534716227 -0.018874346051276386
3.8619562828020384 -0.13839960044697103 0.0490562594071699
3.861578954664571 -0.49379373850863817 0.45734410840314776
3.8618457892688554 -0.453262331171718 0.16861576878790008
3.76202319468227 -0.47367802970743483 -0.02355101441891841
3.761889991794381 -0.37774174008427097 0.12058114848159662
3.76206658666908 -0.3546018571567271 -0.07050330659921487
3.7616410236401667 0.14631120379070517 0.3899770987411716
3.7619120926412086 -0.12308639318950176 0.09666693081200692
3.7620073342583833 -0.3439466473287002 -0.0063892453647098335
3.7616686325741697 -0.047009954981955426 0.3601028562504921
3.7616941666757775 -0.3636258736816267 0.33247368581157954
3.7619373738743143 0.05528429088979514 0.06931137669381399
3.7616734326248933 -0.306114043084846 0.35490896215564693
3.7618731231758433 0.14965561818217682 0.13883383439167735
3.7626752994689467 0.07002943228778843 -0.7291608914330391
3.7618028667165344 0.34169866164617135 0.21485482461475902
3.7624184700620034 0.2032836156040917 -0.4512586739530847
3.762453983150289 0.1563033625258754 -0.48968560528298094
3.7622511415023805 0.037054067209969996 -0.27020083357375024
3.7623712440257324 0.10193633385108133 -0.4001577491847833
3.7618257263513035 0.15564408679296987 0.1901195605779638
3.7626143957535763 0.014495397044684444 -0.6632600362480712
3.7618317296604498 0.19633295030777242 0.18362368090521636
3.8540536820128004 -0.517289437353611 -0.7741953328297728
3.78942561986033 -0.517289437353611 0.19381362407764663
3.8542360071596495 0.35746630281209946 -0.48529640334885293
3.7901350015769744 0.35746630281209946 -0.3513002159151417
3.856954065207559 0.29329097401014936 -0.8525030110741839
3.7692420744207658 -0.08492564221786894 -0.8525840729563361
3.8239497687747055 -0.42117109870842606 0.5498105631952124
3.822689325296153 0.08393340427590634 0.5498093983154758
