-2.084064245223999 -1.348243236541748 -1.895877718925476
-2.0853047370910645 -1.348243236541748 -2.055872917175293
-2.085242748260498 -1.244835615158081 -2.047873020172119
-2.0851807594299316 -1.1414281129837036 -2.0398733615875244
-2.085118532180786 -1.038020372390747 -2.0318737030029297
-2.0850565433502197 -0.9346128702163696 -2.023873805999756
-2.0849945545196533 -0.8312052488327026 -2.015874147415161
-2.084932565689087 -0.7277977466583252 -2.0078742504119873
-2.0848705768585205 -0.6243901252746582 -1.9998745918273926
-2.084808349609375 -0.5209825038909912 -1.9918748140335083
-2.0847463607788086 -0.4175748825073242 -1.9838751554489136
-2.084684371948242 -0.314167320728302 -1.9758753776550293
-2.084622383117676 -0.21075975894927979 -1.9678754806518555
-2.0845603942871094 -0.10735213756561279 -1.9598758220672607
-2.084498405456543 -0.0039445459842681885 -1.9518760442733765
-2.0844364166259766 0.09946301579475403 -1.9438762664794922
-2.08437442779541 0.20287060737609863 -1.935876488685608
-2.0843122005462646 0.306278258562088 -1.9278767108917236
-2.0842502117156982 0.4096858501434326 -1.919877052307129
-2.084188222885132 0.5130934119224548 -1.9118772745132446
-2.0841262340545654 0.6165010333061218 -1.9038774967193604
-2.0847463607788086 -0.4175748825073242 -1.983875036239624
-2.0853047370910645 -1.244835615158081 -2.055872917175293
-2.0853047370910645 -1.1414281129837036 -2.055872917175293
-2.0853047370910645 -1.038020372390747 -2.055872917175293
-2.0853047370910645 -0.9346128702163696 -2.055872917175293
-2.0853047370910645 -0.8312052488327026 -2.055872917175293
-2.0853047370910645 -0.7277977466583252 -2.055872917175293
-2.0853047370910645 -0.6243901252746582 -2.055872917175293
-2.0853047370910645 -0.5209825038909912 -2.055872917175293
-2.0853047370910645 -0.4175748825073242 -2.055872917175293
-2.0853047370910645 -0.314167320728302 -2.055872917175293
-2.0853047370910645 -0.21075975894927979 -2.055872917175293
-2.0853047370910645 -0.10735213756561279 -2.055872917175293
-2.0853047370910645 -0.0039445459842681885 -2.055872917175293
-2.0853047370910645 0.09946301579475403 -2.055872917175293
-2.0853047370910645 0.20287060737609863 -2.055872917175293
-2.0853047370910645 0.306278258562088 -2.055872917175293
-2.0853047370910645 0.4096858501434326 -2.055872917175293
-2.0853047370910645 0.5130934119224548 -2.055872917175293
-2.0853047370910645 0.6165010333061218 -2.055872917175293
-2.0643410682678223 1.0917564630508423 -1.8960305452346802
-1.963474988937378 1.0917564630508423 -1.8968125581741333
-1.8626089096069336 1.0917564630508423 -1.8975944519042969
-1.7617428302764893 1.0917564630508423 -1.89837646484375
-1.660876750946045 1.0917564630508423 -1.8991583585739136
-1.5600106716156006 1.0917564630508423 -1.8999403715133667
-1.4591445922851562 1.0917564630508423 -1.9007222652435303
-1.358278512954712 1.0917564630508423 -1.9015042781829834
-1.2574125528335571 1.0917564630508423 -1.9022862911224365
-1.1565463542938232 1.0917564630508423 -1.9030683040618896
-1.055680274963379 1.0917564630508423 -1.9038501977920532
-0.9548141956329346 1.0917564630508423 -1.9046320915222168
-0.8539481163024902 1.0917564630508423 -1.90541410446167
-0.7530820369720459 1.0917564630508423 -1.9061959981918335
-0.6522159576416016 1.0917564630508423 -1.906977891921997
-0.5513499975204468 1.0917564630508423 -1.9077599048614502
-0.45048385858535767 1.0917564630508423 -1.9085419178009033
-0.34961777925491333 1.0917564630508423 -1.909323811531067
-0.248751699924469 1.0917564630508423 -1.9101057052612305
-0.14788562059402466 1.0917564630508423 -1.9108877182006836
-0.04701954126358032 1.0917564630508423 -1.9116696119308472
0.053846538066864014 1.0917564630508423 -1.9124516248703003
0.15471255779266357 1.0917564630508423 -1.9132335186004639
0.2555786967277527 1.0917564630508423 -1.914015531539917
0.35644471645355225 1.0917564630508423 -1.9147975444793701
0.45731085538864136 1.0917564630508423 -1.9155795574188232
0.5581769347190857 1.0917564630508423 -1.9163613319396973
0.6590429544448853 1.0917564630508423 -1.9171433448791504
0.7599090337753296 1.0917564630508423 -1.9179253578186035
0.8607751131057739 1.0917564630508423 -1.918707251548767
0.9616411924362183 1.0917564630508423 -1.9194892644882202
1.0625072717666626 1.0917564630508423 -1.9202711582183838
1.1633734703063965 1.0917564630508423 -1.921053171157837
1.2642394304275513 1.0917564630508423 -1.9218350648880005
1.3651055097579956 1.0917564630508423 -1.9226170778274536
1.46597158908844 1.0917564630508423 -1.9233989715576172
1.464731216430664 1.0917564630508423 -2.0833940505981445
1.3638995885849 1.0917564630508423 -2.078167676925659
1.2630679607391357 1.0917564630508423 -2.072941541671753
1.1622364521026611 1.0917564630508423 -2.0677151679992676
1.061404824256897 1.0917564630508423 -2.0624890327453613
0.9605730772018433 1.0917564630508423 -2.057262659072876
0.8597414493560791 1.0917564630508423 -2.0520365238189697
0.7589098215103149 1.0917564630508423 -2.0468101501464844
0.6580781936645508 1.0917564630508423 -2.041584014892578
0.5572466254234314 1.0917564630508423 -2.0363576412200928
0.45641499757766724 1.0917564630508423 -2.0311315059661865
0.35558342933654785 1.0917564630508423 -2.025905132293701
0.2547517418861389 1.0917564630508423 -2.020678997039795
0.15392011404037476 1.0917564630508423 -2.0154526233673096
0.05308854579925537 1.0917564630508423 -2.010226249694824
-0.04774308204650879 1.0917564630508423 -2.005000114440918
-0.14857476949691772 1.0917564630508423 -1.9997738599777222
-0.2494063377380371 1.0917564630508423 -1.9945476055145264
-0.35023796558380127 1.0917564630508423 -1.9893213510513306
-0.45106959342956543 1.0917564630508423 -1.9840950965881348
-0.5519012212753296 1.0917564630508423 -1.978868842124939
-0.652732789516449 1.0917564630508423 -1.9736425876617432
-0.7535644173622131 1.0917564630508423 -1.9684163331985474
-0.8543960452079773 1.0917564630508423 -1.9631900787353516
-0.9552277326583862 1.0917564630508423 -1.9579638242721558
-1.0560593605041504 1.0917564630508423 -1.95273756980896
-1.1568909883499146 1.0917564630508423 -1.9475113153457642
-1.2577226161956787 1.0917564630508423 -1.9422850608825684
-1.3585541248321533 1.0917564630508423 -1.937058687210083
-1.4593857526779175 1.0917564630508423 -1.9318324327468872
-1.5602173805236816 1.0917564630508423 -1.9266061782836914
-1.6610491275787354 1.0917564630508423 -1.9213799238204956
-1.76188063621521 1.0917564630508423 -1.9161536693572998
-1.8627122640609741 1.0917564630508423 -1.910927414894104
-1.9635438919067383 1.0917564630508423 -1.9057011604309082
-2.064375400543213 1.0917564630508423 -1.9004749059677124
1.3638651371002197 1.0917564630508423 -2.0826120376586914
1.2629990577697754 1.0917564630508423 -2.0818302631378174
1.162132978439331 1.0917564630508423 -2.0810482501983643
1.0612670183181763 1.0917564630508423 -2.080266237258911
0.9604008197784424 1.0917564630508423 -2.079484224319458
0.859534740447998 1.0917564630508423 -2.078702449798584
0.7586686611175537 1.0917564630508423 -2.077920436859131
0.6578025817871094 1.0917564630508423 -2.0771384239196777
0.5569365620613098 1.0917564630508423 -2.0763564109802246
0.4560704827308655 1.0917564630508423 -2.0755746364593506
0.3552044630050659 1.0917564630508423 -2.0747926235198975
0.2543383240699768 1.0917564630508423 -2.0740106105804443
0.15347224473953247 1.0917564630508423 -2.0732288360595703
0.05260622501373291 1.0917564630508423 -2.072446823120117
-0.048259854316711426 1.0917564630508423 -2.071664810180664
-0.14912599325180054 1.0917564630508423 -2.070882797241211
-0.2499920129776001 1.0917564630508423 -2.070101022720337
-0.35085809230804443 1.0917564630508423 -2.069319009780884
-0.45172417163848877 1.0917564630508423 -2.0685372352600098
-0.5525902509689331 1.0917564630508423 -2.0677552223205566
-0.6534563899040222 1.0917564630508423 -2.0669732093811035
-0.754322350025177 1.0917564630508423 -2.0661911964416504
-0.8551884293556213 1.0917564630508423 -2.0654091835021973
-0.9560545682907104 1.0917564630508423 -2.064627170562744
-1.0569206476211548 1.0917564630508423 -2.06384539604187
-1.1577867269515991 1.0917564630508423 -2.063063383102417
-1.258652687072754 1.0917564630508423 -2.062281608581543
-1.3595187664031982 1.0917564630508423 -2.06149959564209
-1.4603848457336426 1.0917564630508423 -2.0607175827026367
-1.561250925064087 1.0917564630508423 -2.0599355697631836
-1.6621170043945312 1.0917564630508423 -2.0591535568237305
-1.7629830837249756 1.0917564630508423 -2.0583717823028564
-1.8638492822647095 1.0917564630508423 -2.0575897693634033
-1.9647152423858643 1.0917564630508423 -2.0568079948425293
-2.0655813217163086 1.0917564630508423 -2.056025981903076
0.4654066860675812 -1.3482435941696167 -1.9156421422958374
0.3651849031448364 -1.3482435941696167 -1.914865255355835
0.26496315002441406 -1.3482435941696167 -1.914088249206543
0.1647413969039917 -1.3482435941696167 -1.913311243057251
0.06451964378356934 -1.3482435941696167 -1.9125343561172485
-0.03570210933685303 -1.3482435941696167 -1.9117573499679565
-0.1359238624572754 -1.3482435941696167 -1.910980463027954
-0.23614558577537537 -1.3482435941696167 -1.910203456878662
-0.3363673686981201 -1.3482435941696167 -1.9094264507293701
-0.4365891218185425 -1.3482435941696167 -1.9086496829986572
-0.5368108749389648 -1.3482435941696167 -1.9078726768493652
-0.7372543811798096 -1.3482435941696167 -1.9063186645507812
-0.8374761343002319 -1.3482435941696167 -1.9055416584014893
-1.037919521331787 -1.3482435941696167 -1.9039878845214844
-1.239538311958313 -1.3482435941696167 -2.0540082454681396
-1.1392512321472168 -1.3482435941696167 -2.0463645458221436
-1.0389642715454102 -1.3482435941696167 -2.0387206077575684
-0.9386771321296692 -1.3482435941696167 -2.031076669692993
-0.8383901119232178 -1.3482435941696167 -2.023432970046997
-0.7381030321121216 -1.3482435941696167 -2.015789031982422
-0.6378160119056702 -1.3482435941696167 -2.008145332336426
-0.5375289916992188 -1.3482435941696167 -2.0005013942718506
-0.43724191188812256 -1.3482435941696167 -1.9928576946258545
-0.3369549512863159 -1.3482435941696167 -1.9852137565612793
-0.23666790127754211 -1.3482435941696167 -1.977569818496704
-0.13638082146644592 -1.3482435941696167 -1.9699259996414185
-0.03609380125999451 -1.3482435941696167 -1.9622821807861328
0.0641932487487793 -1.3482435941696167 -1.9546383619308472
0.16448023915290833 -1.3482435941696167 -1.9469945430755615
0.26476728916168213 -1.3482435941696167 -1.9393506050109863
0.36505430936813354 -1.3482435941696167 -1.9317067861557007
0.46534138917922974 -1.3482435941696167 -1.924062967300415
-1.2396035194396973 -1.3482435941696167 -2.062429189682007
-1.0391600131988525 -1.3482435941696167 -2.063983201980591
-0.43782946467399597 -1.3482435941696167 -2.0686447620391846
-0.3376077711582184 -1.3482435941696167 -2.0694217681884766
-0.23738601803779602 -1.3482435941696167 -2.0701987743377686
-0.13716423511505127 -1.3482435941696167 -2.0709757804870605
-0.036942481994628906 -1.3482435941696167 -2.0717525482177734
0.06327927112579346 -1.3482435941696167 -2.0725295543670654
0.16350102424621582 -1.3482435941696167 -2.0733065605163574
0.2637227773666382 -1.3482435941696167 -2.0740835666656494
0.36394453048706055 -1.3482435941696167 -2.0748605728149414
0.4641662836074829 -1.3482435941696167 -2.0756373405456543
1.46597158908844 -1.3482435941696167 -1.9233989715576172
1.3211642503738403 -1.3482435941696167 -1.9222763776779175
1.319923996925354 -1.3482435941696167 -2.0822715759277344
1.392947793006897 -1.3482435941696167 -2.002835273742676
1.464731216430664 -1.3482435941696167 -2.0833940505981445
1.46597158908844 0.9900897145271301 -1.9233989715576172
1.46597158908844 0.8884231448173523 -1.9233989715576172
1.46597158908844 0.7867564558982849 -1.9233989715576172
1.46597158908844 0.6850898265838623 -1.9233989715576172
1.46597158908844 0.5834231376647949 -1.9233989715576172
1.46597158908844 0.4817564785480499 -1.9233989715576172
1.4659717082977295 0.38008975982666016 -1.9233989715576172
1.46597158908844 0.27842310070991516 -1.9233989715576172
1.46597158908844 0.17675644159317017 -1.9233989715576172
1.46597158908844 0.07508975267410278 -1.9233989715576172
1.46597158908844 -0.026576876640319824 -1.9233989715576172
1.46597158908844 -0.1282435655593872 -1.9233989715576172
1.46597158908844 -0.2299102544784546 -1.9233989715576172
1.46597158908844 -0.3315768837928772 -1.9233989715576172
1.46597158908844 -0.4332435727119446 -1.9233989715576172
1.46597158908844 -0.5349102020263672 -1.9233989715576172
1.4659717082977295 -0.6365768909454346 -1.9233989715576172
1.46597158908844 -0.738243579864502 -1.9233989715576172
1.46597158908844 -0.8399102687835693 -1.9233989715576172
1.46597158908844 -0.9415769577026367 -1.9233989715576172
1.46597158908844 -1.0432435274124146 -1.9233989715576172
1.46597158908844 -1.144910216331482 -1.9233989715576172
1.46597158908844 -1.2465769052505493 -1.9233989715576172
1.4647828340530396 -1.2465769052505493 -2.0767276287078857
1.4648345708847046 -1.144910216331482 -2.070061206817627
1.4648863077163696 -1.0432435274124146 -2.063394546508789
1.4649379253387451 -0.9415769577026367 -2.0567281246185303
1.4649896621704102 -0.8399102687835693 -2.0500617027282715
1.4650412797927856 -0.738243579864502 -2.0433952808380127
1.4650928974151611 -0.6365768909454346 -2.036728858947754
1.4651446342468262 -0.5349102020263672 -2.030062437057495
1.4651963710784912 -0.4332435727119446 -2.0233960151672363
1.4652481079101562 -0.3315768837928772 -2.0167293548583984
1.4652997255325317 -0.2299102544784546 -2.0100629329681396
1.4653513431549072 -0.1282435655593872 -2.003396511077881
1.4654030799865723 -0.026576876640319824 -1.996730089187622
1.4654548168182373 0.07508975267410278 -1.9900635480880737
1.4655064344406128 0.17675644159317017 -1.983397126197815
1.4655581712722778 0.27842310070991516 -1.9767307043075562
1.4656099081039429 0.38008975982666016 -1.9700641632080078
1.4656615257263184 0.4817564785480499 -1.963397741317749
1.4657131433486938 0.5834231376647949 -1.9567313194274902
1.4657648801803589 0.6850898265838623 -1.950064778327942
1.4658164978027344 0.7867564558982849 -1.943398356437683
1.4658682346343994 0.8884231448173523 -1.9367319345474243
1.4659199714660645 0.9900897145271301 -1.930065393447876
1.464731216430664 -1.2465769052505493 -2.0833940505981445
1.464731216430664 -1.144910216331482 -2.0833940505981445
1.464731216430664 -1.0432435274124146 -2.0833940505981445
1.464731216430664 -0.9415769577026367 -2.0833940505981445
1.464731216430664 -0.8399102687835693 -2.0833940505981445
1.464731216430664 -0.738243579864502 -2.0833940505981445
1.464731216430664 -0.6365768909454346 -2.0833940505981445
1.464731216430664 -0.5349102020263672 -2.0833940505981445
1.464731216430664 -0.4332435727119446 -2.0833940505981445
1.464731216430664 -0.3315768837928772 -2.0833940505981445
1.464731216430664 -0.2299102544784546 -2.0833940505981445
1.464731216430664 -0.1282435655593872 -2.0833940505981445
1.464731216430664 -0.026576876640319824 -2.0833940505981445
1.464731216430664 0.07508975267410278 -2.0833940505981445
1.464731216430664 0.17675644159317017 -2.0833940505981445
1.464731216430664 0.27842310070991516 -2.0833940505981445
1.464731216430664 0.4817564785480499 -2.0833940505981445
1.464731216430664 0.5834231376647949 -2.0833940505981445
1.464731216430664 0.6850898265838623 -2.0833940505981445
1.464731216430664 0.7867564558982849 -2.0833940505981445
1.464731216430664 0.8884231448173523 -2.0833940505981445
1.464731216430664 0.9900897145271301 -2.0833940505981445
-2.166395664215088 0.9900897145271301 -2.0485775470733643
-2.166344165802002 0.8884231448173523 -2.0419108867645264
-2.166292428970337 0.7867564558982849 -2.0352444648742676
-2.166240692138672 0.6850898265838623 -2.028578042984009
-2.166188955307007 0.5834231376647949 -2.02191162109375
-2.166137218475342 0.4817564785480499 -2.015245199203491
-2.166085720062256 0.38008975982666016 -2.0085787773132324
-2.166033983230591 0.27842310070991516 -2.0019121170043945
-2.165982246398926 0.17675644159317017 -1.9952458143234253
-2.1659305095672607 0.07508975267410278 -1.988579273223877
-2.1658787727355957 -0.026576876640319824 -1.9819128513336182
-2.1658272743225098 -0.1282435655593872 -1.9752463102340698
-2.165775775909424 -0.2299102544784546 -1.9685797691345215
-2.1657238006591797 -0.3315768837928772 -1.9619133472442627
-2.1656723022460938 -0.4332435727119446 -1.955246925354004
-2.1656205654144287 -0.5349102020263672 -1.9485805034637451
-2.1655688285827637 -0.6365768909454346 -1.9419139623641968
-2.1655173301696777 -0.738243579864502 -1.935247540473938
-2.1654655933380127 -0.8399102687835693 -1.9285809993743896
-2.1654138565063477 -0.9415769577026367 -1.9219144582748413
-2.1653621196746826 -1.0432435274124146 -1.915248155593872
-2.1653103828430176 -1.144910216331482 -1.9085816144943237
-2.1652588844299316 -1.2465769052505493 -1.901915192604065
-2.165879011154175 -0.026576876640319824 -1.9819128513336182
-2.16593074798584 0.07508975267410278 -1.988579273223877
1.624726414680481 -1.3482435941696167 -2.08463454246521
1.5453490018844604 -1.3482435941696167 -2.004016876220703
1.6259667873382568 -1.3482435941696167 -1.924639344215393
1.5453490018844604 1.0917564630508423 -2.004016876220703
1.624726414680481 1.0917564630508423 -2.08463454246521
1.6259667873382568 1.0917564630508423 -1.924639344215393
1.4659199714660645 -1.2465769052505493 -1.930065393447876
1.4658682346343994 -1.144910216331482 -1.9367319345474243
1.4658164978027344 -1.0432435274124146 -1.943398356437683
1.4657648801803589 -0.9415769577026367 -1.950064778327942
1.4657131433486938 -0.8399102687835693 -1.9567313194274902
1.4656615257263184 -0.738243579864502 -1.963397741317749
1.4656099081039429 -0.6365768909454346 -1.9700641632080078
1.4655581712722778 -0.5349102020263672 -1.9767307043075562
1.4655064344406128 -0.4332435727119446 -1.983397126197815
1.4654548168182373 -0.3315768837928772 -1.9900635480880737
1.4654030799865723 -0.2299102544784546 -1.996730089187622
1.4652997255325317 -0.026576876640319824 -2.0100629329681396
1.4652481079101562 0.07508975267410278 -2.0167293548583984
1.4651963710784912 0.17675644159317017 -2.0233960151672363
1.4651446342468262 0.27842310070991516 -2.030062437057495
1.4650928974151611 0.38008975982666016 -2.036728858947754
1.4650412797927856 0.4817564785480499 -2.0433952808380127
1.4649896621704102 0.5834231376647949 -2.0500617027282715
1.4649379253387451 0.6850898265838623 -2.0567281246185303
1.4648863077163696 0.7867564558982849 -2.063394546508789
1.4648345708847046 0.8884231448173523 -2.070061206817627
1.4647828340530396 0.9900897145271301 -2.0767276287078857
1.4713976383209229 -1.2465769052505493 -2.0834457874298096
1.4780641794204712 -1.144910216331482 -2.0834975242614746
1.48473060131073 -1.0432435274124146 -2.0835490226745605
1.4913970232009888 -0.9415769577026367 -2.0836007595062256
1.498063564300537 -0.8399102687835693 -2.0836524963378906
1.504729986190796 -0.738243579864502 -2.0837042331695557
1.5113964080810547 -0.6365768909454346 -2.0837559700012207
1.518062949180603 -0.5349102020263672 -2.0838074684143066
1.5247294902801514 -0.4332435727119446 -2.0838592052459717
1.5313959121704102 -0.3315768837928772 -2.0839109420776367
1.538062334060669 -0.2299102544784546 -2.0839626789093018
1.5447287559509277 -0.1282435655593872 -2.084014415740967
1.551395297050476 -0.026576876640319824 -2.0840659141540527
1.5580617189407349 0.07508975267410278 -2.0841176509857178
1.5647282600402832 0.17675644159317017 -2.084169387817383
1.571394681930542 0.27842310070991516 -2.0842208862304688
1.5780612230300903 0.38008975982666016 -2.084272861480713
1.5847276449203491 0.4817564785480499 -2.084324359893799
1.591394066810608 0.5834231376647949 -2.084376096725464
1.5980606079101562 0.6850898265838623 -2.084427833557129
1.604727029800415 0.7867564558982849 -2.084479331970215
1.6113934516906738 0.8884231448173523 -2.084531307220459
1.6180599927902222 0.9900897145271301 -2.084582805633545
1.624726414680481 0.9900897145271301 -2.08463454246521
1.624726414680481 0.8884231448173523 -2.08463454246521
1.624726414680481 0.7867564558982849 -2.08463454246521
1.624726414680481 0.6850898265838623 -2.08463454246521
1.624726414680481 0.5834231376647949 -2.08463454246521
1.624726414680481 0.4817564785480499 -2.08463454246521
1.624726414680481 0.38008975982666016 -2.08463454246521
1.6247265338897705 0.27842310070991516 -2.08463454246521
1.6247265338897705 0.17675644159317017 -2.08463454246521
1.624726414680481 0.07508975267410278 -2.08463454246521
1.624726414680481 -0.026576876640319824 -2.08463454246521
1.624726414680481 -0.1282435655593872 -2.08463454246521
1.624726414680481 -0.2299102544784546 -2.08463454246521
1.624726414680481 -0.3315768837928772 -2.08463454246521
1.6247265338897705 -0.4332435727119446 -2.08463454246521
1.6247265338897705 -0.5349102020263672 -2.08463454246521
1.624726414680481 -0.6365768909454346 -2.08463454246521
1.624726414680481 -0.738243579864502 -2.08463454246521
1.624726414680481 -0.8399102687835693 -2.08463454246521
1.624726414680481 -0.9415769577026367 -2.08463454246521
1.624726414680481 -1.0432435274124146 -2.08463454246521
1.624726414680481 -1.144910216331482 -2.08463454246521
1.624726414680481 -1.2465769052505493 -2.08463454246521
1.624778151512146 -1.2465769052505493 -2.077968120574951
1.6248297691345215 -1.144910216331482 -2.0713016986846924
1.6248815059661865 -1.0432435274124146 -2.0646350383758545
1.624933123588562 -0.9415769577026367 -2.0579686164855957
1.624984860420227 -0.8399102687835693 -2.051302194595337
1.6250364780426025 -0.738243579864502 -2.044635772705078
1.6250882148742676 -0.6365768909454346 -2.0379693508148193
1.6251399517059326 -0.5349102020263672 -2.0313026905059814
1.625191569328308 -0.4332435727119446 -2.0246362686157227
1.6252431869506836 -0.3315768837928772 -2.017969846725464
1.6252949237823486 -0.2299102544784546 -2.011303424835205
1.6253466606140137 -0.1282435655593872 -2.0046370029449463
1.6253982782363892 -0.026576876640319824 -1.9979705810546875
1.6254498958587646 0.07508975267410278 -1.9913040399551392
1.6255016326904297 0.17675644159317017 -1.9846374988555908
1.6255533695220947 0.27842310070991516 -1.977971076965332
1.6256049871444702 0.38008975982666016 -1.9713046550750732
1.6256566047668457 0.4817564785480499 -1.9646382331848145
1.6257083415985107 0.5834231376647949 -1.9579716920852661
1.6257600784301758 0.6850898265838623 -1.9513051509857178
1.6258116960525513 0.7867564558982849 -1.944638729095459
1.6258634328842163 0.8884231448173523 -1.9379723072052002
1.6259150505065918 0.9900897145271301 -1.9313058853149414
1.6259667873382568 0.9900897145271301 -1.924639344215393
1.6259667873382568 0.8884231448173523 -1.924639344215393
1.6259667873382568 0.7867564558982849 -1.924639344215393
1.6259667873382568 0.6850898265838623 -1.924639344215393
1.6259667873382568 0.5834231376647949 -1.924639344215393
1.6259667873382568 0.4817564785480499 -1.924639344215393
1.6259667873382568 0.38008975982666016 -1.9246394634246826
1.6259667873382568 0.27842310070991516 -1.9246392250061035
1.6259667873382568 0.17675644159317017 -1.924639344215393
1.6259667873382568 0.07508975267410278 -1.924639344215393
1.6259667873382568 -0.026576876640319824 -1.9246394634246826
1.6259667873382568 -0.1282435655593872 -1.924639344215393
1.6259667873382568 -0.2299102544784546 -1.9246394634246826
1.6259667873382568 -0.3315768837928772 -1.924639344215393
1.6259667873382568 -0.4332435727119446 -1.924639344215393
1.6259667873382568 -0.5349102020263672 -1.9246392250061035
1.6259667873382568 -0.6365768909454346 -1.9246394634246826
1.6259667873382568 -0.738243579864502 -1.924639344215393
1.6259667873382568 -0.8399102687835693 -1.924639344215393
1.6259667873382568 -0.9415769577026367 -1.924639344215393
1.6259667873382568 -1.0432435274124146 -1.924639344215393
1.6259667873382568 -1.144910216331482 -1.924639344215393
1.6259667873382568 -1.2465769052505493 -1.924639344215393
1.6193002462387085 -1.2465769052505493 -1.9245877265930176
1.6126338243484497 -1.144910216331482 -1.9245359897613525
1.605967402458191 -1.0432435274124146 -1.9244842529296875
1.5993009805679321 -0.9415769577026367 -1.924432635307312
1.5926344394683838 -0.8399102687835693 -1.924380898475647
1.5859678983688354 -0.738243579864502 -1.9243292808532715
1.5793015956878662 -0.6365768909454346 -1.9242775440216064
1.5726350545883179 -0.5349102020263672 -1.9242258071899414
1.565968632698059 -0.4332435727119446 -1.924174189567566
1.5593020915985107 -0.3315768837928772 -1.9241225719451904
1.552635669708252 -0.2299102544784546 -1.9240708351135254
1.5459692478179932 -0.1282435655593872 -1.9240190982818604
1.5393027067184448 -0.026576876640319824 -1.9239675998687744
1.532636284828186 0.07508975267410278 -1.9239157438278198
1.5259697437286377 0.17675644159317017 -1.9238641262054443
1.519303321838379 0.27842310070991516 -1.9238123893737793
1.5126368999481201 0.38008975982666016 -1.9237606525421143
1.5059704780578613 0.4817564785480499 -1.9237090349197388
1.499303936958313 0.5834231376647949 -1.9236574172973633
1.4926373958587646 0.6850898265838623 -1.9236056804656982
1.4859709739685059 0.7867564558982849 -1.9235540628433228
1.479304552078247 0.8884231448173523 -1.9235023260116577
1.4726381301879883 0.9900897145271301 -1.9234505891799927
-2.2979063987731934 -1.3482434749603271 1.6269562244415283
-2.2142763137817383 -1.3482434749603271 1.569901943206787
-2.130645990371704 -1.3482434749603271 1.5128475427627563
-2.047015905380249 -1.3482434749603271 1.4557933807373047
-1.963385820388794 -1.3482434749603271 1.398738980293274
-1.8797554969787598 -1.3482434749603271 1.3416846990585327
-1.7961252927780151 -1.3482434749603271 1.284630298614502
-1.7124950885772705 -1.3482434749603271 1.2275760173797607
-1.6288650035858154 -1.3482434749603271 1.1705217361450195
-1.5452347993850708 -1.3482434749603271 1.1134674549102783
-1.4616045951843262 -1.3482434749603271 1.0564130544662476
-1.377974510192871 -1.3482434749603271 0.9993587732315063
-1.2943443059921265 -1.3482434749603271 0.9423044323921204
-1.2107141017913818 -1.3482434749603271 0.8852500915527344
-1.1270837783813477 -1.3482434749603271 0.8281958699226379
-1.0434536933898926 -1.3482434749603271 0.771141529083252
-0.9598235487937927 -1.3482434749603271 0.714087188243866
-0.8761932849884033 -1.3482434749603271 0.65703284740448
-0.7925631999969482 -1.3482434749603271 0.599978506565094
-0.7089329957962036 -1.3482434749603271 0.5429242253303528
-0.625302791595459 -1.3482434749603271 0.48586997389793396
-0.5416727066040039 -1.3482434749603271 0.428815633058548
-0.4580424427986145 -1.3482434749603271 0.371761292219162
-0.3744122385978699 -1.3482434749603271 0.3147069811820984
-0.2907821536064148 -1.3482434749603271 0.2576526999473572
-0.20715194940567017 -1.3482434749603271 0.20059841871261597
-0.12352168560028076 -1.3482434749603271 0.14354407787322998
-0.03989154100418091 -1.3482434749603271 0.086489737033844
0.043738603591918945 -1.3482434749603271 0.029435455799102783
0.1273687481880188 -1.3482434749603271 -0.027618885040283203
0.21099895238876343 -1.3482434749603271 -0.08467322587966919
0.2946290969848633 -1.3482434749603271 -0.1417275071144104
0.3782593011856079 -1.3482434749603271 -0.1987818479537964
0.4618895649909973 -1.3482434749603271 -0.25583615899086
0.5455197095870972 -1.3482434749603271 -0.3128904700279236
0.6291499137878418 -1.3482434749603271 -0.3699447810649872
0.7127800583839417 -1.3482434749603271 -0.4269990921020508
0.7964102029800415 -1.3482434749603271 -0.48405343294143677
0.8800404071807861 -1.3482434749603271 -0.5411077737808228
0.963670551776886 -1.3482434749603271 -0.598162055015564
1.0473006963729858 -1.3482434749603271 -0.6552163362503052
1.1309309005737305 -1.3482434749603271 -0.7122706174850464
1.214561104774475 -1.3482434749603271 -0.7693249583244324
1.2981913089752197 -1.3482434749603271 -0.8263792991638184
1.3818215131759644 -1.3482434749603271 -0.8834335803985596
1.465451717376709 -1.3482434749603271 -0.9404879212379456
1.549081802368164 -1.3482434749603271 -0.9975422620773315
1.6327120065689087 -1.3482434749603271 -1.0545965433120728
1.5337331295013428 -1.3482434749603271 -1.0795817375183105
1.4347542524337769 -1.3482434749603271 -1.1045669317245483
1.335775375366211 -1.3482434749603271 -1.1295520067214966
1.236796498298645 -1.3482434749603271 -1.154537320137024
1.137817621231079 -1.3482434749603271 -1.1795225143432617
1.0388387441635132 -1.3482434749603271 -1.20450758934021
0.9398598670959473 -1.3482434749603271 -1.2294927835464478
0.8408810496330261 -1.3482434749603271 -1.2544779777526855
0.7419021129608154 -1.3482434749603271 -1.2794631719589233
0.6429232954978943 -1.3482434749603271 -1.3044483661651611
0.5439443588256836 -1.3482434749603271 -1.329433560371399
0.44496554136276245 -1.3482434749603271 -1.3544187545776367
0.34598660469055176 -1.3482434749603271 -1.379403829574585
0.24700778722763062 -1.3482434749603271 -1.4043890237808228
0.14802885055541992 -1.3482434749603271 -1.4293742179870605
0.04905003309249878 -1.3482434749603271 -1.4543594121932983
-0.04992884397506714 -1.3482434749603271 -1.4793446063995361
-0.14890772104263306 -1.3482434749603271 -1.504329800605774
-0.24788665771484375 -1.3482434749603271 -1.5293149948120117
-0.3468654751777649 -1.3482434749603271 -1.55430006980896
-0.44584429264068604 -1.3482434749603271 -1.5792853832244873
-0.5448232293128967 -1.3482434749603271 -1.604270577430725
-0.6438020467758179 -1.3482434749603271 -1.6292556524276733
-0.7427809834480286 -1.3482434749603271 -1.6542408466339111
-0.8417598009109497 -1.3482434749603271 -1.679226040840149
-0.9407387375831604 -1.3482434749603271 -1.7042112350463867
-1.0397175550460815 -1.3482434749603271 -1.7291964292526245
-1.138696551322937 -1.3482434749603271 -1.7541815042495728
-1.2376753091812134 -1.3482434749603271 -1.7791666984558105
-1.3366543054580688 -1.3482434749603271 -1.8041518926620483
-1.4356330633163452 -1.3482434749603271 -1.8291370868682861
-1.5346119403839111 -1.3482434749603271 -1.854122281074524
-1.633590817451477 -1.3482434749603271 -1.8791074752807617
-1.732569694519043 -1.3482434749603271 -1.90409255027771
-1.8315485715866089 -1.3482434749603271 -1.9290778636932373
-1.9305274486541748 -1.3482434749603271 -1.954063057899475
-2.029506206512451 -1.3482434749603271 -1.979048252105713
-2.1284852027893066 -1.3482434749603271 -2.004033327102661
-2.227464199066162 -1.3482434749603271 -2.0290184020996094
-2.3264429569244385 -1.3482434749603271 -2.0540037155151367
-2.325650215148926 -1.3482434749603271 -1.9517548084259033
-2.324857473373413 -1.3482434749603271 -1.84950590133667
-2.3240647315979004 -1.3482434749603271 -1.7472569942474365
-2.323272228240967 -1.3482434749603271 -1.6450082063674927
-2.322479724884033 -1.3482434749603271 -1.5427592992782593
-2.3216867446899414 -1.3482434749603271 -1.4405103921890259
-2.320894241333008 -1.3482434749603271 -1.3382614850997925
-2.320101499557495 -1.3482434749603271 -1.2360126972198486
-2.3193087577819824 -1.3482434749603271 -1.1337637901306152
-2.318516254425049 -1.3482434749603271 -1.0315147638320923
-2.317723274230957 -1.3482434749603271 -0.9292659759521484
-2.3169307708740234 -1.3482434749603271 -0.8270170092582703
-2.3161380290985107 -1.3482434749603271 -0.7247682213783264
-2.315345287322998 -1.3482434749603271 -0.6225192546844482
-2.3145527839660645 -1.3482434749603271 -0.5202704668045044
-2.3137600421905518 -1.3482434749603271 -0.4180215001106262
-2.312967300415039 -1.3482434749603271 -0.3157727122306824
-2.3121747970581055 -1.3482434749603271 -0.2135237455368042
-2.3113818168640137 -1.3482434749603271 -0.1112748384475708
-2.31058931350708 -1.3482434749603271 -0.009025990962982178
-2.3097965717315674 -1.3482434749603271 0.09322291612625122
-2.3090038299560547 -1.3482434749603271 0.19547176361083984
-2.308211326599121 -1.3482434749603271 0.29772067070007324
-2.3074185848236084 -1.3482434749603271 0.3999696373939514
-2.3066258430480957 -1.3482434749603271 0.50221848487854
-2.305833339691162 -1.3482434749603271 0.6044673323631287
-2.3050405979156494 -1.3482434749603271 0.7067162990570068
-2.3042478561401367 -1.3482434749603271 0.8089651465415955
-2.303455114364624 -1.3482434749603271 0.9112139940261841
-2.3026623725891113 -1.3482434749603271 1.0134629011154175
-2.3018698692321777 -1.3482434749603271 1.1157118082046509
-2.301077127456665 -1.3482434749603271 1.2179607152938843
-2.3002846240997314 -1.3482434749603271 1.3202095031738281
-2.2994918823242188 -1.3482434749603271 1.4224584102630615
-2.298698902130127 -1.3482434749603271 1.524707317352295
1.631913423538208 -1.3482434749603271 -1.1576004028320312
1.6311149597167969 -1.3482434749603271 -1.2606041431427002
1.6303164958953857 -1.3482434749603271 -1.3636080026626587
1.6295177936553955 -1.3482434749603271 -1.4666118621826172
1.6287193298339844 -1.3482434749603271 -1.5696156024932861
1.6279208660125732 -1.3482434749603271 -1.6726194620132446
1.627122163772583 -1.3482434749603271 -1.7756233215332031
1.6263236999511719 -1.3482434749603271 -1.878627061843872
1.6255252361297607 -1.3482434749603271 -1.9816310405731201
1.62472665309906 -1.3482434749603271 -2.084634780883789
1.5234146118164062 -1.3482434749603271 -2.0838491916656494
1.4221025705337524 -1.3482434749603271 -2.083063840866089
1.3207905292510986 -1.3482434749603271 -2.0822784900665283
1.2194784879684448 -1.3482434749603271 -2.0814931392669678
1.118166446685791 -1.3482434749603271 -2.080707550048828
1.0168544054031372 -1.3482434749603271 -2.0799221992492676
0.9155423641204834 -1.3482434749603271 -2.079136848449707
0.8142303228378296 -1.3482434749603271 -2.0783514976501465
0.7129182815551758 -1.3482434749603271 -2.077566146850586
0.6116062998771667 -1.3482434749603271 -2.0767807960510254
0.5102941989898682 -1.3482434749603271 -2.0759952068328857
0.40898221731185913 -1.3482434749603271 -2.075209856033325
0.30767011642456055 -1.3482434749603271 -2.0744245052337646
0.20635801553726196 -1.3482434749603271 -2.073638916015625
0.10504603385925293 -1.3482434749603271 -2.0728535652160645
0.003733992576599121 -1.3482434749603271 -2.072068214416504
-0.09757804870605469 -1.3482434749603271 -2.0712828636169434
-0.19889003038406372 -1.3482434749603271 -2.070497512817383
-0.3002021312713623 -1.3482434749603271 -2.0697121620178223
-0.4015141725540161 -1.3482434749603271 -2.0689263343811035
-0.5028262734413147 -1.3482434749603271 -2.068140983581543
-0.6041382551193237 -1.3482434749603271 -2.0673556327819824
-0.7054503560066223 -1.3482434749603271 -2.066570281982422
-0.8067623376846313 -1.3482434749603271 -2.0657849311828613
-0.9080744385719299 -1.3482434749603271 -2.064999580383301
-1.009386420249939 -1.3482434749603271 -2.064213991165161
-1.1106984615325928 -1.3482434749603271 -2.0634286403656006
-1.2120105028152466 -1.3482434749603271 -2.06264328956604
-1.3133225440979004 -1.3482434749603271 -2.0618579387664795
-1.4146345853805542 -1.3482434749603271 -2.06107234954834
-1.515946626663208 -1.3482434749603271 -2.0602869987487793
-1.6172586679458618 -1.3482434749603271 -2.0595016479492188
-1.7185707092285156 -1.3482434749603271 -2.058716297149658
-1.8198827505111694 -1.3482434749603271 -2.0579307079315186
-1.9211947917938232 -1.3482434749603271 -2.057145357131958
-2.0225067138671875 -1.3482434749603271 -2.0563600063323975
-2.123818874359131 -1.3482434749603271 -2.055574417114258
-2.225131034851074 -1.3482434749603271 -2.0547893047332764
-2.196690082550049 -1.3482434749603271 1.6136078834533691
-2.095473527908325 -1.3482434749603271 1.6002596616744995
-1.9942569732666016 -1.3482434749603271 1.5869113206863403
-1.8930405378341675 -1.3482434749603271 1.5735629796981812
-1.7918241024017334 -1.3482434749603271 1.5602145195007324
-1.6906075477600098 -1.3482434749603271 1.5468662977218628
-1.5893912315368652 -1.3482434749603271 1.5335179567337036
-1.4881746768951416 -1.3482434749603271 1.5201696157455444
-1.3869582414627075 -1.3482434749603271 1.5068213939666748
-1.2857416868209839 -1.3482434749603271 1.4934730529785156
-1.1845252513885498 -1.3482434749603271 1.4801247119903564
-1.0833088159561157 -1.3482434749603271 1.4667763710021973
-0.9820923805236816 -1.3482434749603271 1.4534281492233276
-0.8808759450912476 -1.3482434749603271 1.4400798082351685
-0.7796594500541687 -1.3482434749603271 1.4267313480377197
-0.6784430146217346 -1.3482434749603271 1.41338312625885
-0.5772265195846558 -1.3482434749603271 1.400034785270691
-0.4760100841522217 -1.3482434749603271 1.3866864442825317
-0.3747935891151428 -1.3482434749603271 1.373338222503662
-0.27357715368270874 -1.3482434749603271 1.359989881515503
-0.17236065864562988 -1.3482434749603271 1.3466415405273438
-0.0711442232131958 -1.3482434749603271 1.3332931995391846
0.03007221221923828 -1.3482434749603271 1.3199448585510254
0.13128864765167236 -1.3482434749603271 1.3065965175628662
0.23250514268875122 -1.3482434749603271 1.293248176574707
0.3337216377258301 -1.3482434749603271 1.2798999547958374
0.43493813276290894 -1.3482434749603271 1.2665514945983887
0.5361546277999878 -1.3482434749603271 1.253203272819519
0.6373710036277771 -1.3482434749603271 1.2398549318313599
0.738587498664856 -1.3482434749603271 1.2265067100524902
0.83980393409729 -1.3482434749603271 1.2131582498550415
0.9410204887390137 -1.3482434749603271 1.1998100280761719
1.0422368049621582 -1.3482434749603271 1.1864616870880127
1.1434533596038818 -1.3482434749603271 1.1731133460998535
1.244669795036316 -1.3482434749603271 1.1597650051116943
1.3458863496780396 -1.3482434749603271 1.1464166641235352
1.447102665901184 -1.3482434749603271 1.133068323135376
1.5483192205429077 -1.3482434749603271 1.1197201013565063
1.6495356559753418 -1.3482434749603271 1.1063717603683472
1.6487345695495605 -1.3482434749603271 1.00346839427948
1.6479333639144897 -1.3482434749603271 0.9005652666091919
1.6471322774887085 -1.3482434749603271 0.7976620197296143
1.6463310718536377 -1.3482434749603271 0.6947587728500366
1.6455299854278564 -1.3482434749603271 0.591855525970459
1.6447288990020752 -1.3482434749603271 0.48895224928855896
1.643927812576294 -1.3482434749603271 0.3860490024089813
1.6431267261505127 -1.3482434749603271 0.2831457555294037
1.642325520515442 -1.3482434749603271 0.18024250864982605
1.641524314880371 -1.3482434749603271 0.0773392915725708
1.6407232284545898 -1.3482434749603271 -0.025564074516296387
1.6399221420288086 -1.3482434749603271 -0.12846729159355164
1.6391210556030273 -1.3482434749603271 -0.23137053847312927
1.6383198499679565 -1.3482434749603271 -0.3342737853527069
1.6375186443328857 -1.3482434749603271 -0.43717703223228455
1.636717677116394 -1.3482434749603271 -0.5400803089141846
1.6359165906906128 -1.3482434749603271 -0.6429835557937622
1.635115385055542 -1.3482434749603271 -0.7458868026733398
1.6343142986297607 -1.3482434749603271 -0.8487900495529175
1.63351309299469 -1.3482434749603271 -0.9516932368278503
-2.1965925693511963 -1.3482434749603271 1.6261707544326782
-2.095278739929199 -1.3482434749603271 1.6253854036331177
-1.9939647912979126 -1.3482434749603271 1.6245999336242676
-1.8926509618759155 -1.3482434749603271 1.623814582824707
-1.7913371324539185 -1.3482434749603271 1.6230289936065674
-1.6900231838226318 -1.3482434749603271 1.6222436428070068
-1.5887093544006348 -1.3482434749603271 1.6214581727981567
-1.4873955249786377 -1.3482434749603271 1.6206728219985962
-1.3860816955566406 -1.3482434749603271 1.619887351989746
-1.284767746925354 -1.3482434749603271 1.6191020011901855
-1.183453917503357 -1.3482434749603271 1.6183165311813354
-1.0821399688720703 -1.3482434749603271 1.6175310611724854
-0.980826199054718 -1.3482434749603271 1.6167457103729248
-0.8795124292373657 -1.3482434749603271 1.6159603595733643
-0.7781984806060791 -1.3482434749603271 1.6151747703552246
-0.6768847107887268 -1.3482434749603271 1.614389419555664
-0.5755707621574402 -1.3482434749603271 1.6136040687561035
-0.4742569327354431 -1.3482434749603271 1.6128184795379639
-0.37294304370880127 -1.3482434749603271 1.6120331287384033
-0.2716292142868042 -1.3482434749603271 1.6112476587295532
-0.17031532526016235 -1.3482434749603271 1.6104621887207031
-0.06900149583816528 -1.3482434749603271 1.6096768379211426
0.03231239318847656 -1.3482434749603271 1.6088913679122925
0.13362622261047363 -1.3482434749603271 1.6081058979034424
0.23494011163711548 -1.3482434749603271 1.6073205471038818
0.3362540006637573 -1.3482434749603271 1.6065351963043213
0.4375677704811096 -1.3482434749603271 1.6057496070861816
0.5388816595077515 -1.3482434749603271 1.604964256286621
0.6401955485343933 -1.3482434749603271 1.604178786277771
0.7415094375610352 -1.3482434749603271 1.6033934354782104
0.8428232669830322 -1.3482434749603271 1.6026079654693604
0.9441370964050293 -1.3482434749603271 1.6018226146697998
1.0454509258270264 -1.3482434749603271 1.6010370254516602
1.146764874458313 -1.3482434749603271 1.6002516746520996
1.24807870388031 -1.3482434749603271 1.5994662046432495
1.3493926525115967 -1.3482434749603271 1.598680853843689
1.4507063627243042 -1.3482434749603271 1.5978953838348389
1.5520203113555908 -1.3482434749603271 1.5971100330352783
1.653334140777588 -1.3482434749603271 1.5963245630264282
1.6523845195770264 -1.3482434749603271 1.4738364219665527
1.6514348983764648 -1.3482434749603271 1.3513481616973877
1.6504852771759033 -1.3482434749603271 1.2288599014282227
1.6495356559753418 -1.508243441581726 1.1063717603683472
1.6504852771759033 -1.508243441581726 1.2288599014282227
1.6514348983764648 -1.508243441581726 1.3513481616973877
1.6523845195770264 -1.508243441581726 1.4738364219665527
1.653334140777588 -1.508243441581726 1.5963245630264282
1.5520203113555908 -1.508243441581726 1.5971100330352783
1.4507063627243042 -1.508243441581726 1.5978953838348389
1.3493926525115967 -1.508243441581726 1.598680853843689
1.24807870388031 -1.5082435607910156 1.5994662046432495
1.146764874458313 -1.508243441581726 1.6002516746520996
1.0454509258270264 -1.508243441581726 1.6010370254516602
0.9441370964050293 -1.508243441581726 1.6018226146697998
0.8428232669830322 -1.508243441581726 1.6026079654693604
0.7415094375610352 -1.508243441581726 1.6033934354782104
0.6401955485343933 -1.508243441581726 1.604178786277771
0.5388816595077515 -1.5082433223724365 1.604964256286621
0.4375677704811096 -1.5082435607910156 1.6057496070861816
0.3362540006637573 -1.5082435607910156 1.6065351963043213
0.23494011163711548 -1.508243441581726 1.6073205471038818
0.13362622261047363 -1.508243441581726 1.6081058979034424
0.03231239318847656 -1.508243441581726 1.6088913679122925
-0.06900149583816528 -1.508243441581726 1.6096768379211426
-0.17031532526016235 -1.508243441581726 1.6104621887207031
-0.2716292142868042 -1.508243441581726 1.6112476587295532
-0.37294304370880127 -1.508243441581726 1.6120331287384033
-0.4742569327354431 -1.508243441581726 1.6128184795379639
-0.5755707621574402 -1.508243441581726 1.6136040687561035
-0.6768847107887268 -1.508243441581726 1.614389419555664
-0.7781984806060791 -1.508243441581726 1.6151747703552246
-0.8795124292373657 -1.508243441581726 1.6159603595733643
-0.980826199054718 -1.5082435607910156 1.6167457103729248
-1.0821399688720703 -1.5082435607910156 1.6175310611724854
-1.183453917503357 -1.5082433223724365 1.6183165311813354
-1.284767746925354 -1.508243441581726 1.6191020011901855
-1.3860816955566406 -1.508243441581726 1.619887351989746
-1.4873955249786377 -1.508243441581726 1.6206728219985962
-1.5887093544006348 -1.508243441581726 1.6214581727981567
-1.6900231838226318 -1.508243441581726 1.6222436428070068
-1.7913371324539185 -1.508243441581726 1.6230289936065674
-1.8926509618759155 -1.5082435607910156 1.623814582824707
-1.9939647912979126 -1.508243441581726 1.6245999336242676
-2.095278739929199 -1.508243441581726 1.6253854036331177
-2.1965925693511963 -1.508243441581726 1.6261707544326782
-2.2979063987731934 -1.508243441581726 1.6269562244415283
-2.196690082550049 -1.508243441581726 1.6136078834533691
-2.095473527908325 -1.508243441581726 1.6002596616744995
-1.9942569732666016 -1.508243441581726 1.5869113206863403
-1.8930405378341675 -1.5082435607910156 1.5735629796981812
-1.7918241024017334 -1.508243441581726 1.5602145195007324
-1.6906075477600098 -1.508243441581726 1.5468662977218628
-1.5893912315368652 -1.508243441581726 1.5335179567337036
-1.4881746768951416 -1.508243441581726 1.5201696157455444
-1.3869582414627075 -1.508243441581726 1.5068213939666748
-1.2857416868209839 -1.508243441581726 1.4934730529785156
-1.1845252513885498 -1.5082433223724365 1.4801247119903564
-1.0833088159561157 -1.5082435607910156 1.4667763710021973
-0.9820923805236816 -1.5082435607910156 1.4534281492233276
-0.8808759450912476 -1.508243441581726 1.4400798082351685
-0.7796594500541687 -1.508243441581726 1.4267313480377197
-0.6784430146217346 -1.508243441581726 1.41338312625885
-0.5772265195846558 -1.508243441581726 1.400034785270691
-0.4760100841522217 -1.508243441581726 1.3866864442825317
-0.3747935891151428 -1.508243441581726 1.373338222503662
-0.27357715368270874 -1.508243441581726 1.359989881515503
-0.17236065864562988 -1.508243441581726 1.3466415405273438
-0.0711442232131958 -1.508243441581726 1.3332931995391846
0.03007221221923828 -1.508243441581726 1.3199448585510254
0.13128864765167236 -1.508243441581726 1.3065965175628662
0.23250514268875122 -1.508243441581726 1.293248176574707
0.3337216377258301 -1.5082435607910156 1.2798999547958374
0.43493813276290894 -1.5082435607910156 1.2665514945983887
0.5361546277999878 -1.5082433223724365 1.253203272819519
0.6373710036277771 -1.508243441581726 1.2398549318313599
0.738587498664856 -1.508243441581726 1.2265067100524902
0.83980393409729 -1.508243441581726 1.2131582498550415
0.9410204887390137 -1.508243441581726 1.1998100280761719
1.0422368049621582 -1.508243441581726 1.1864616870880127
1.1434533596038818 -1.508243441581726 1.1731133460998535
1.244669795036316 -1.5082435607910156 1.1597650051116943
1.3458863496780396 -1.508243441581726 1.1464166641235352
1.447102665901184 -1.508243441581726 1.133068323135376
1.5483192205429077 -1.508243441581726 1.1197201013565063
1.6327120065689087 -1.508243441581726 -1.0545965433120728
1.63351309299469 -1.508243441581726 -0.9516932368278503
1.6343142986297607 -1.508243441581726 -0.8487900495529175
1.635115385055542 -1.508243441581726 -0.7458868026733398
1.6359165906906128 -1.508243441581726 -0.6429835557937622
1.636717677116394 -1.508243441581726 -0.5400803089141846
1.6375186443328857 -1.508243441581726 -0.43717703223228455
1.6383198499679565 -1.5082435607910156 -0.3342737853527069
1.6391210556030273 -1.508243441581726 -0.23137053847312927
1.6399221420288086 -1.508243441581726 -0.12846729159355164
1.6407232284545898 -1.508243441581726 -0.025564074516296387
1.641524314880371 -1.508243441581726 0.0773392915725708
1.642325520515442 -1.508243441581726 0.18024250864982605
1.6431267261505127 -1.508243441581726 0.2831457555294037
1.643927812576294 -1.5082435607910156 0.3860490024089813
1.6447288990020752 -1.508243441581726 0.48895224928855896
1.6455299854278564 -1.508243441581726 0.591855525970459
1.6463310718536377 -1.508243441581726 0.6947587728500366
1.6471322774887085 -1.508243441581726 0.7976620197296143
1.6479333639144897 -1.508243441581726 0.9005652666091919
1.6487345695495605 -1.508243441581726 1.00346839427948
-2.2142763137817383 -1.508243441581726 1.569901943206787
-2.130645990371704 -1.508243441581726 1.5128475427627563
-2.047015905380249 -1.5082435607910156 1.4557933807373047
-1.963385820388794 -1.508243441581726 1.398738980293274
-1.8797554969787598 -1.508243441581726 1.3416846990585327
-1.7961252927780151 -1.508243441581726 1.284630298614502
-1.7124950885772705 -1.508243441581726 1.2275760173797607
-1.6288650035858154 -1.508243441581726 1.1705217361450195
-1.5452347993850708 -1.5082435607910156 1.1134674549102783
-1.4616045951843262 -1.508243441581726 1.0564130544662476
-1.377974510192871 -1.508243441581726 0.9993587732315063
-1.2943443059921265 -1.508243441581726 0.9423044323921204
-1.2107141017913818 -1.508243441581726 0.8852500915527344
-1.1270837783813477 -1.5082433223724365 0.8281958699226379
-1.0434536933898926 -1.5082435607910156 0.771141529083252
